ply
format ascii 1.0
comment generated by: python
element vertex 2501
property float x
property float y
property float z
end_header
-12.76 823.90 121.02
-10.49 822.10 120.72
-8.24 821.20 120.58
-5.98 819.40 120.28
-3.75 818.50 120.13
-1.51 817.60 119.99
0.71 818.50 120.13
2.94 816.70 119.84
5.15 815.80 119.69
7.38 815.80 119.69
9.60 815.80 119.69
11.82 815.80 119.69
14.06 816.70 119.84
16.30 817.60 119.98
18.60 820.30 120.42
20.89 822.10 120.72
23.13 822.10 120.72
25.37 822.10 120.71
27.61 822.10 120.71
29.88 823.00 120.86
32.36 828.40 121.74
34.96 835.60 122.92
37.95 850.00 125.27
-17.57 837.40 120.95
-15.10 828.40 119.50
-12.76 823.90 118.78
-10.50 823.00 118.63
-8.24 821.20 118.35
-5.99 820.30 118.20
-3.75 819.40 118.06
-1.52 819.40 118.06
0.71 819.40 118.06
2.94 817.60 117.77
5.16 816.70 117.62
7.38 815.80 117.48
9.61 816.70 117.62
11.84 816.70 117.62
14.06 816.70 117.62
16.29 816.70 117.62
18.56 818.50 117.91
20.84 820.30 118.19
23.10 821.20 118.34
25.34 821.20 118.34
27.58 821.20 118.33
29.92 823.90 118.77
32.36 828.40 119.49
34.92 834.70 120.50
37.69 844.60 122.09
-17.57 837.40 118.67
-15.12 829.30 117.39
-12.79 825.70 116.82
-10.53 824.80 116.68
-8.26 823.00 116.40
-6.00 821.20 116.12
-3.75 819.40 115.83
-1.52 819.40 115.83
0.71 818.50 115.69
2.94 816.70 115.41
5.16 816.70 115.41
7.39 816.70 115.41
9.61 816.70 115.40
11.84 816.70 115.40
14.06 816.70 115.40
16.29 816.70 115.40
18.56 818.50 115.68
20.84 820.30 115.97
23.10 821.20 116.11
25.34 821.20 116.11
27.58 821.20 116.10
29.89 823.00 116.39
32.33 827.50 117.09
34.75 831.10 117.66
37.42 839.20 118.93
-17.59 838.30 116.53
-15.16 831.10 115.41
-12.81 826.60 114.72
-10.54 825.70 114.58
-8.27 823.90 114.30
-6.01 822.10 114.02
-3.76 820.30 113.75
-1.52 819.40 113.61
0.71 818.50 113.47
2.93 815.80 113.05
5.16 815.80 113.05
7.40 817.60 113.33
9.62 817.60 113.33
11.85 817.60 113.33
14.06 816.70 113.19
16.29 816.70 113.18
18.51 816.70 113.18
20.81 819.40 113.60
23.07 820.30 113.74
25.34 821.20 113.88
27.58 821.20 113.87
29.89 823.00 114.15
32.25 825.70 114.57
34.63 828.40 114.98
37.25 835.60 116.09
-17.64 840.10 114.52
-15.16 831.10 113.15
-12.79 825.70 112.33
-10.53 824.80 112.20
-8.28 824.80 112.20
-6.02 823.00 111.93
-3.76 821.20 111.65
-1.52 819.40 111.38
0.71 817.60 111.11
2.93 815.80 110.83
5.15 814.90 110.70
7.39 816.70 110.97
9.64 818.50 111.24
11.87 818.50 111.24
14.08 817.60 111.10
16.31 817.60 111.10
18.54 817.60 111.10
20.81 819.40 111.37
23.08 820.30 111.51
25.34 821.20 111.64
27.58 821.20 111.64
29.82 821.20 111.64
32.21 824.80 112.18
34.59 827.50 112.59
37.16 833.80 113.54
40.00 844.60 115.18
-17.64 840.10 112.23
-15.16 831.10 110.89
-12.80 825.70 110.09
-10.53 824.80 109.96
-8.28 824.80 109.96
-6.02 823.90 109.82
-3.76 821.20 109.42
-1.52 819.40 109.15
0.71 816.70 108.75
2.94 816.70 108.75
5.15 814.90 108.49
7.37 814.90 108.49
9.61 816.70 108.75
11.85 817.60 108.89
14.08 817.60 108.88
16.29 816.70 108.75
18.51 816.70 108.75
20.79 818.50 109.01
23.08 820.30 109.28
25.41 823.00 109.68
27.65 823.00 109.68
29.86 822.10 109.54
32.18 823.90 109.81
34.63 828.40 110.47
37.21 834.70 111.41
39.82 841.00 112.34
-17.62 839.20 109.81
-15.14 830.20 108.50
-12.81 826.60 107.97
-10.53 824.80 107.71
-8.28 824.80 107.71
-6.02 823.90 107.58
-3.75 819.40 106.93
-1.52 818.50 106.80
0.71 817.60 106.67
2.94 817.60 106.67
5.16 816.70 106.53
7.38 815.80 106.40
9.61 816.70 106.53
11.85 817.60 106.66
14.08 817.60 106.66
16.27 815.80 106.40
18.52 816.70 106.53
20.79 818.50 106.79
23.08 820.30 107.05
25.38 822.10 107.31
27.65 823.00 107.44
29.86 822.10 107.31
32.14 823.00 107.44
34.59 827.50 108.09
37.21 834.70 109.14
39.77 840.10 109.92
42.62 850.00 111.36
-17.58 837.40 107.26
-15.12 829.30 106.11
-12.81 826.60 105.73
-10.54 825.70 105.60
-8.28 824.80 105.47
-6.02 823.90 105.34
-3.75 819.40 104.70
-1.52 818.50 104.57
0.71 817.60 104.44
2.95 818.50 104.57
5.16 816.70 104.32
7.38 815.80 104.19
9.60 815.80 104.19
11.83 815.80 104.19
14.05 815.80 104.19
16.27 815.80 104.18
18.54 817.60 104.44
20.79 818.50 104.57
23.08 820.30 104.82
25.35 821.20 104.95
27.62 822.10 105.08
29.83 821.20 104.95
32.10 822.10 105.07
34.51 825.70 105.58
37.03 831.10 106.35
39.68 838.30 107.37
42.17 841.90 107.88
-17.56 836.50 104.86
-15.14 830.20 103.98
-12.84 828.40 103.73
-10.56 826.60 103.48
-8.29 825.70 103.35
-6.02 823.00 102.98
-3.75 819.40 102.47
-1.52 817.60 102.22
0.71 817.60 102.22
2.94 817.60 102.22
5.16 816.70 102.10
7.38 815.80 101.97
9.62 816.70 102.10
11.86 817.60 102.22
14.07 816.70 102.09
16.29 816.70 102.09
18.54 817.60 102.22
20.79 818.50 102.34
23.05 819.40 102.47
25.29 819.40 102.46
27.55 820.30 102.59
29.79 820.30 102.59
32.03 820.30 102.58
34.39 823.00 102.96
36.90 828.40 103.71
39.49 834.70 104.59
41.92 837.40 104.96
44.74 846.40 106.21
-20.15 848.20 104.17
-17.56 836.50 102.58
-15.18 832.00 101.96
-12.88 830.20 101.72
-10.56 826.60 101.23
-8.29 825.70 101.10
-6.02 823.00 100.74
-3.76 821.20 100.49
-1.52 818.50 100.12
0.71 817.60 100.00
2.94 817.60 100.00
5.16 815.80 99.75
7.38 815.80 99.75
9.60 815.80 99.75
11.84 816.70 99.88
14.07 816.70 99.87
16.27 815.80 99.75
18.52 816.70 99.87
20.77 817.60 99.99
23.03 818.50 100.12
25.26 818.50 100.11
27.52 819.40 100.24
29.76 819.40 100.23
32.03 820.30 100.35
34.39 823.00 100.72
36.81 826.60 101.21
39.30 831.10 101.82
41.67 832.90 102.07
44.26 838.30 102.80
-20.15 848.20 101.86
-17.60 838.30 100.54
-15.24 834.70 100.06
-12.89 831.10 99.58
-10.56 826.60 98.98
-8.27 823.90 98.62
-6.00 821.20 98.26
-3.76 820.30 98.14
-1.52 819.40 98.02
0.71 818.50 97.90
2.95 818.50 97.90
5.17 817.60 97.78
7.40 817.60 97.78
9.64 818.50 97.90
11.87 818.50 97.90
14.09 817.60 97.77
16.27 815.80 97.53
18.47 814.90 97.41
20.70 814.90 97.41
22.94 815.80 97.53
25.23 817.60 97.77
27.49 818.50 97.89
29.72 818.50 97.89
32.03 820.30 98.12
34.31 821.20 98.24
36.73 824.80 98.72
39.12 827.50 99.08
41.48 829.30 99.32
44.06 834.70 100.03
46.84 842.80 101.11
-20.15 848.20 99.54
-17.66 841.00 98.60
-15.27 836.50 98.02
-12.91 832.00 97.43
-10.55 825.70 96.61
-8.26 823.00 96.26
-6.00 821.20 96.02
-3.76 820.30 95.91
-1.52 819.40 95.79
0.72 820.30 95.91
2.95 820.30 95.91
5.18 819.40 95.79
7.41 818.50 95.67
9.64 818.50 95.67
11.86 817.60 95.55
14.07 816.70 95.43
16.28 815.80 95.32
18.45 814.00 95.08
20.70 814.90 95.20
22.95 815.80 95.31
25.23 817.60 95.55
27.49 818.50 95.66
29.72 818.50 95.66
32.03 820.30 95.89
34.35 822.10 96.13
36.77 825.70 96.59
39.12 827.50 96.83
41.53 830.20 97.18
43.95 832.90 97.52
46.62 839.20 98.34
49.55 849.10 99.63
-20.18 849.10 97.34
-17.71 842.80 96.54
-15.29 837.40 95.85
-12.91 832.00 95.16
-10.56 826.60 94.48
-8.28 824.80 94.25
-6.00 821.20 93.79
-3.75 819.40 93.56
-1.52 818.50 93.45
0.72 819.40 93.56
2.95 818.50 93.45
5.17 817.60 93.33
7.38 815.80 93.10
9.62 816.70 93.22
11.86 817.60 93.33
14.09 817.60 93.33
16.30 816.70 93.21
18.48 814.90 92.98
20.70 814.90 92.98
22.97 816.70 93.21
25.26 818.50 93.44
27.53 819.40 93.55
29.76 819.40 93.55
31.99 819.40 93.55
34.27 820.30 93.66
36.73 824.80 94.23
39.12 827.50 94.57
41.48 829.30 94.80
43.85 831.10 95.03
46.40 835.60 95.60
49.09 841.90 96.40
-20.20 850.00 95.13
-17.73 843.70 94.35
-15.28 836.50 93.45
-12.91 832.00 92.90
-10.56 826.60 92.22
-8.30 826.60 92.23
-6.02 823.00 91.78
-3.76 820.30 91.44
-1.51 816.70 91.00
0.71 816.70 91.00
2.94 816.70 91.00
5.17 816.70 90.99
7.37 814.90 90.77
9.59 814.90 90.77
11.82 814.90 90.77
14.05 815.80 90.88
16.28 815.80 90.88
18.48 814.90 90.77
20.70 814.90 90.77
22.95 815.80 90.88
25.23 817.60 91.10
27.50 818.50 91.21
29.73 818.50 91.21
32.00 819.40 91.32
34.31 821.20 91.54
36.73 824.80 91.99
39.08 826.60 92.21
41.48 829.30 92.54
43.75 829.30 92.54
46.12 831.10 92.76
48.68 835.60 93.32
51.39 841.90 94.10
-20.16 848.20 92.59
-17.69 841.90 91.83
-15.24 834.70 90.95
-12.88 830.20 90.41
-10.55 825.70 89.86
-8.27 823.90 89.65
-6.00 821.20 89.32
-3.75 818.50 88.99
-1.51 816.70 88.77
0.71 815.80 88.66
2.93 814.90 88.56
5.14 813.10 88.34
7.35 812.20 88.23
9.56 812.20 88.23
11.77 812.20 88.23
14.02 814.00 88.44
16.22 813.10 88.33
18.41 812.20 88.22
20.62 812.20 88.22
22.86 813.10 88.33
25.11 814.00 88.44
27.43 816.70 88.76
29.66 816.70 88.76
31.92 817.60 88.87
34.19 818.50 88.98
36.56 821.20 89.30
38.89 823.00 89.52
41.18 823.90 89.63
43.48 824.80 89.73
45.90 827.50 90.06
48.39 831.10 90.49
51.03 836.50 91.14
53.69 841.90 91.80
-20.06 844.60 89.85
-17.58 837.40 89.00
-15.17 831.10 88.25
-12.82 826.60 87.72
-10.49 821.20 87.08
-8.21 818.50 86.76
-5.98 818.50 86.76
-3.74 816.70 86.55
-1.51 815.80 86.45
0.71 814.90 86.34
2.93 814.90 86.34
5.15 814.00 86.23
7.35 812.20 86.02
9.55 811.30 85.91
11.76 811.30 85.91
13.99 812.20 86.02
16.18 811.30 85.91
18.39 811.30 85.91
20.60 811.30 85.91
22.81 811.30 85.91
25.02 811.30 85.91
27.30 813.10 86.12
29.58 814.90 86.33
31.84 815.80 86.43
34.11 816.70 86.54
36.42 818.50 86.75
38.75 820.30 86.96
41.09 822.10 87.17
43.43 823.90 87.38
45.79 825.70 87.59
48.16 827.50 87.80
50.66 831.10 88.22
53.19 834.70 88.65
56.26 845.50 89.92
-22.46 847.30 87.85
-19.92 839.20 86.92
-17.48 832.90 86.19
-15.09 827.50 85.57
-12.76 823.00 85.05
-10.45 818.50 84.54
-8.18 815.80 84.23
-5.95 814.90 84.12
-3.72 813.10 83.91
-1.51 813.10 83.91
0.71 814.00 84.02
2.93 814.00 84.02
5.14 813.10 83.91
7.33 810.40 83.60
9.54 810.40 83.60
11.76 811.30 83.71
13.99 812.20 83.81
16.18 811.30 83.70
18.39 811.30 83.70
20.57 810.40 83.60
22.78 810.40 83.60
25.02 811.30 83.70
27.30 813.10 83.91
29.55 814.00 84.01
31.81 814.90 84.11
33.98 814.00 84.00
36.25 814.90 84.11
38.56 816.70 84.31
40.99 820.30 84.72
43.33 822.10 84.93
45.68 823.90 85.13
47.99 824.80 85.24
50.36 826.60 85.44
52.74 828.40 85.65
55.60 836.50 86.58
58.79 848.20 87.92
-24.81 848.20 85.63
-22.25 840.10 84.73
-19.80 834.70 84.12
-17.42 830.20 83.62
-15.04 824.80 83.01
-12.71 820.30 82.51
-10.41 815.80 82.00
-8.17 814.00 81.80
-5.94 813.10 81.70
-3.72 813.10 81.70
-1.51 812.20 81.60
0.71 813.10 81.70
2.93 813.10 81.70
5.14 813.10 81.70
7.33 810.40 81.40
9.54 810.40 81.40
11.76 811.30 81.50
13.99 812.20 81.60
16.20 812.20 81.60
18.39 811.30 81.50
20.60 811.30 81.50
22.81 811.30 81.50
25.02 811.30 81.49
27.27 812.20 81.59
29.51 813.10 81.69
31.77 814.00 81.79
33.94 813.10 81.69
36.16 813.10 81.69
38.42 814.00 81.79
40.84 817.60 82.19
43.17 819.40 82.39
45.46 820.30 82.49
47.81 822.10 82.69
50.18 823.90 82.89
52.55 825.70 83.09
55.14 830.20 83.59
58.10 839.20 84.59
-24.57 841.00 82.53
-22.11 835.60 81.94
-19.73 832.00 81.55
-17.38 828.40 81.16
-15.02 823.90 80.67
-12.70 819.40 80.18
-10.41 815.80 79.78
-8.17 814.00 79.59
-5.94 813.10 79.49
-3.72 812.20 79.39
-1.50 811.30 79.29
0.71 811.30 79.29
2.91 810.40 79.20
5.12 810.40 79.20
7.31 808.60 79.00
9.51 808.60 79.00
11.73 809.50 79.10
13.95 810.40 79.19
16.16 810.40 79.19
18.35 809.50 79.09
20.55 809.50 79.09
22.76 809.50 79.09
24.99 810.40 79.19
27.23 811.30 79.29
29.48 812.20 79.38
31.73 813.10 79.48
33.95 813.10 79.48
36.16 813.10 79.48
38.38 813.10 79.47
40.74 815.80 79.77
43.02 816.70 79.86
45.35 818.50 80.06
47.64 819.40 80.15
50.06 822.10 80.45
52.36 823.00 80.54
54.94 827.50 81.03
57.68 833.80 81.71
60.61 841.90 82.60
-26.97 843.70 80.52
-24.37 834.70 79.57
-22.01 832.00 79.28
-19.66 829.30 78.99
-17.29 824.80 78.52
-14.97 821.20 78.14
-12.67 817.60 77.75
-10.40 814.90 77.47
-8.16 813.10 77.28
-5.93 812.20 77.18
-3.72 812.20 77.18
-1.50 811.30 77.09
0.71 809.50 76.90
2.90 807.70 76.71
5.10 807.70 76.71
7.30 807.70 76.71
9.50 807.70 76.70
11.69 806.80 76.61
13.90 807.70 76.70
16.08 806.80 76.61
18.30 807.70 76.70
20.50 807.70 76.70
22.73 808.60 76.80
24.96 809.50 76.89
27.17 809.50 76.89
29.37 809.50 76.89
31.61 810.40 76.98
33.86 811.30 77.08
36.12 812.20 77.17
38.33 812.20 77.17
40.59 813.10 77.26
42.86 814.00 77.35
45.13 814.90 77.45
47.47 816.70 77.64
49.94 820.30 78.02
52.30 822.10 78.20
54.74 824.80 78.49
57.27 828.40 78.87
60.03 834.70 79.53
62.84 841.00 80.20
-29.52 850.00 78.86
-26.88 841.00 77.94
-24.34 833.80 77.19
-21.98 831.10 76.92
-19.62 827.50 76.55
-17.25 823.00 76.08
-14.93 819.40 75.71
-12.64 815.80 75.34
-10.39 814.00 75.16
-8.15 812.20 74.97
-5.93 812.20 74.97
-3.71 811.30 74.88
-1.50 809.50 74.70
0.70 807.70 74.51
2.90 806.80 74.42
5.09 805.90 74.32
7.29 806.80 74.42
9.49 806.80 74.42
11.67 805.90 74.32
13.87 805.90 74.32
16.04 805.00 74.23
18.26 805.90 74.32
20.48 806.80 74.41
22.70 807.70 74.50
24.90 807.70 74.50
27.10 807.70 74.50
29.30 807.70 74.50
31.50 807.70 74.50
33.78 809.50 74.68
36.03 810.40 74.77
38.28 811.30 74.86
40.49 811.30 74.86
42.70 811.30 74.86
44.97 812.20 74.95
47.35 814.90 75.23
49.76 817.60 75.50
52.11 819.40 75.69
54.55 822.10 75.96
56.99 824.80 76.24
59.60 829.30 76.70
62.32 834.70 77.25
65.45 844.60 78.27
-29.35 845.50 76.09
-26.78 838.30 75.37
-24.28 832.00 74.74
-21.91 828.40 74.38
-19.50 823.00 73.84
-17.15 818.50 73.39
-14.88 816.70 73.21
-12.62 814.90 73.03
-10.36 812.20 72.76
-8.13 810.40 72.58
-5.92 810.40 72.58
-3.71 810.40 72.58
-1.50 809.50 72.49
0.70 807.70 72.31
2.90 806.80 72.22
5.09 805.90 72.13
7.30 806.80 72.22
9.48 805.90 72.13
11.66 805.00 72.04
13.82 803.20 71.86
16.00 803.20 71.86
18.24 805.00 72.04
20.48 806.80 72.22
22.70 807.70 72.31
24.90 807.70 72.31
27.07 806.80 72.22
29.23 805.90 72.12
31.42 805.90 72.12
33.66 806.80 72.21
35.94 808.60 72.39
38.24 810.40 72.57
40.45 810.40 72.57
42.71 811.30 72.65
44.91 811.30 72.65
47.24 813.10 72.83
49.64 815.80 73.10
51.92 816.70 73.19
54.22 817.60 73.27
56.65 820.30 73.54
59.32 825.70 74.08
62.09 832.00 74.71
64.91 838.30 75.33
68.08 848.20 76.32
-29.25 842.80 73.51
-26.72 836.50 72.90
-24.26 831.10 72.38
-21.83 825.70 71.86
-19.43 820.30 71.34
-17.11 816.70 70.99
-14.84 814.90 70.81
-12.59 813.10 70.64
-10.34 810.40 70.38
-8.13 810.40 70.38
-5.91 809.50 70.29
-3.71 809.50 70.29
-1.50 808.60 70.20
0.70 807.70 70.12
2.90 807.70 70.12
5.10 807.70 70.12
7.30 806.80 70.03
9.48 805.90 69.94
11.66 805.00 69.85
13.82 803.20 69.68
16.00 803.20 69.68
18.24 805.00 69.85
20.45 805.90 69.94
22.65 805.90 69.94
24.84 805.90 69.94
27.04 805.90 69.93
29.23 805.90 69.93
31.42 805.90 69.93
33.66 806.80 70.02
35.90 807.70 70.10
38.19 809.50 70.28
40.40 809.50 70.27
42.65 810.40 70.36
44.86 810.40 70.36
47.13 811.30 70.44
49.46 813.10 70.62
51.73 814.00 70.70
54.02 814.90 70.79
56.45 817.60 71.04
59.10 823.00 71.57
61.72 827.50 72.00
64.52 833.80 72.61
67.44 841.00 73.30
-31.71 846.40 71.55
-29.08 838.30 70.79
-26.66 834.70 70.45
-24.20 829.30 69.94
-21.80 824.80 69.52
-19.38 818.50 68.93
-17.07 814.90 68.59
-14.79 812.20 68.34
-12.56 811.30 68.26
-10.31 808.60 68.00
-8.11 808.60 68.00
-5.90 807.70 67.92
-3.70 807.70 67.92
-1.49 806.80 67.83
0.70 806.80 67.83
2.90 807.70 67.92
5.10 807.70 67.92
7.28 805.00 67.67
9.45 803.20 67.50
11.60 801.40 67.33
13.78 801.40 67.33
15.98 802.30 67.41
18.21 804.10 67.58
20.45 805.90 67.75
22.62 805.00 67.66
24.81 805.00 67.66
27.04 805.90 67.74
29.27 806.80 67.83
31.42 805.90 67.74
33.66 806.80 67.82
35.90 807.70 67.91
38.20 809.50 68.07
40.50 811.30 68.24
42.66 810.40 68.15
44.92 811.30 68.24
47.07 810.40 68.15
49.40 812.20 68.32
51.61 812.20 68.32
53.95 814.00 68.48
56.38 816.70 68.73
58.89 820.30 69.07
61.43 823.90 69.40
64.06 828.40 69.82
66.96 835.60 70.50
69.99 843.70 71.26
-34.11 848.20 69.39
-31.48 841.00 68.74
-28.90 833.80 68.09
-26.53 831.10 67.84
-24.05 824.80 67.27
-21.70 821.20 66.95
-19.34 816.70 66.54
-17.02 813.10 66.21
-14.77 811.30 66.05
-12.54 810.40 65.97
-10.34 810.40 65.97
-8.13 810.40 65.97
-5.91 809.50 65.89
-3.70 807.70 65.72
-1.49 805.00 65.48
0.70 805.00 65.48
2.90 805.90 65.56
5.10 806.80 65.64
7.28 805.00 65.48
9.46 804.10 65.39
11.62 802.30 65.23
13.80 802.30 65.23
15.99 802.30 65.23
18.19 803.20 65.31
20.40 804.10 65.39
22.56 803.20 65.31
24.78 804.10 65.39
26.97 804.10 65.39
29.20 805.00 65.47
31.39 805.00 65.47
33.62 805.90 65.55
35.90 807.70 65.71
38.20 809.50 65.87
40.45 810.40 65.95
42.61 809.50 65.87
44.81 809.50 65.87
46.95 808.60 65.78
49.22 809.50 65.86
51.48 810.40 65.94
53.82 812.20 66.10
56.17 814.00 66.26
58.53 815.80 66.43
60.98 818.50 66.67
63.67 823.90 67.16
66.40 829.30 67.64
69.49 838.30 68.46
72.73 848.20 69.36
-33.95 844.60 66.76
-31.41 839.20 66.28
-28.84 832.00 65.65
-26.47 829.30 65.42
-24.00 823.00 64.86
-21.64 819.40 64.55
-19.29 814.90 64.15
-17.02 813.10 64.00
-14.77 811.30 63.84
-12.54 810.40 63.76
-10.34 810.40 63.76
-8.12 809.50 63.68
-5.90 808.60 63.60
-3.69 806.80 63.45
-1.49 804.10 63.21
0.70 802.30 63.05
2.89 803.20 63.13
5.08 804.10 63.21
7.26 803.20 63.13
9.43 802.30 63.05
11.60 801.40 62.97
13.77 800.50 62.89
15.97 801.40 62.97
18.22 804.10 63.20
20.40 804.10 63.20
22.57 803.20 63.12
24.75 803.20 63.12
26.97 804.10 63.20
29.16 804.10 63.20
31.35 804.10 63.20
33.62 805.90 63.36
35.86 806.80 63.43
38.15 808.60 63.59
40.40 809.50 63.67
42.55 808.60 63.59
44.81 809.50 63.66
46.96 808.60 63.58
49.22 809.50 63.66
51.49 810.40 63.74
53.83 812.20 63.89
56.11 813.10 63.97
58.39 814.00 64.05
60.83 816.70 64.28
63.44 821.20 64.67
66.16 826.60 65.15
69.08 833.80 65.78
72.04 841.00 66.40
-33.87 842.80 64.29
-31.34 837.40 63.84
-28.77 830.20 63.23
-26.31 824.80 62.77
-23.88 819.40 62.31
-21.57 816.70 62.09
-19.29 814.90 61.93
-17.03 813.10 61.78
-14.79 812.20 61.71
-12.55 810.40 61.55
-10.31 808.60 61.40
-8.10 807.70 61.33
-5.90 807.70 61.33
-3.69 806.80 61.25
-1.49 805.00 61.10
0.70 803.20 60.94
2.88 802.30 60.87
5.07 802.30 60.87
7.25 802.30 60.87
9.42 801.40 60.79
11.59 800.50 60.71
13.75 799.60 60.64
15.97 801.40 60.79
18.17 802.30 60.87
20.38 803.20 60.94
22.51 801.40 60.79
24.72 802.30 60.86
26.91 802.30 60.86
29.12 803.20 60.94
31.31 803.20 60.94
33.54 804.10 61.01
35.77 805.00 61.09
37.96 805.00 61.08
40.25 806.80 61.24
42.45 806.80 61.23
44.70 807.70 61.31
46.84 806.80 61.23
49.10 807.70 61.30
51.49 810.40 61.53
53.83 812.20 61.68
56.11 813.10 61.76
58.25 812.20 61.68
60.69 814.90 61.90
63.29 819.40 62.28
66.01 824.80 62.74
68.75 830.20 63.19
71.45 834.70 63.57
74.96 847.30 64.64
-36.43 848.20 62.43
-33.75 840.10 61.77
-31.23 834.70 61.33
-28.70 828.40 60.81
-26.21 822.10 60.30
-23.85 818.50 60.01
-21.57 816.70 59.86
-19.31 815.80 59.79
-17.03 813.10 59.57
-14.75 810.40 59.35
-12.50 807.70 59.13
-10.27 805.90 58.98
-8.07 805.00 58.91
-5.87 804.10 58.83
-3.68 804.10 58.83
-1.49 803.20 58.76
0.70 802.30 58.69
2.88 801.40 58.61
5.07 802.30 58.69
7.24 801.40 58.61
9.40 799.60 58.46
11.56 798.70 58.39
13.73 798.70 58.39
15.95 800.50 58.54
18.17 802.30 58.68
20.36 802.30 58.68
22.48 800.50 58.53
24.69 801.40 58.61
26.91 802.30 58.68
29.16 804.10 58.83
31.31 803.20 58.75
33.54 804.10 58.82
35.73 804.10 58.82
37.92 804.10 58.82
40.21 805.90 58.97
42.45 806.80 59.04
44.70 807.70 59.11
46.84 806.80 59.04
49.10 807.70 59.11
51.43 809.50 59.25
53.76 811.30 59.40
56.04 812.20 59.47
58.18 811.30 59.39
60.54 813.10 59.54
63.06 816.70 59.83
65.69 821.20 60.20
68.34 825.70 60.56
71.02 830.20 60.93
74.35 841.00 61.81
-36.26 844.60 59.83
-33.59 836.50 59.19
-31.04 830.20 58.69
-28.53 823.90 58.20
-26.12 819.40 57.85
-23.74 814.90 57.49
-21.46 813.10 57.35
-19.24 813.10 57.35
-16.98 811.30 57.21
-14.74 809.50 57.07
-12.47 805.90 56.79
-10.26 805.00 56.72
-8.05 803.20 56.57
-5.85 802.30 56.50
-3.67 802.30 56.50
-1.49 802.30 56.50
0.70 802.30 56.50
2.88 802.30 56.50
5.06 801.40 56.43
7.23 800.50 56.36
9.39 798.70 56.22
11.56 798.70 56.22
13.75 799.60 56.29
15.95 800.50 56.36
18.15 801.40 56.43
20.31 800.50 56.36
22.46 799.60 56.29
24.69 801.40 56.43
26.87 801.40 56.43
29.09 802.30 56.50
31.27 802.30 56.50
33.50 803.20 56.57
35.73 804.10 56.64
37.97 805.00 56.70
40.16 805.00 56.70
42.45 806.80 56.84
44.65 806.80 56.84
46.90 807.70 56.91
49.10 807.70 56.91
51.43 809.50 57.05
53.70 810.40 57.12
56.04 812.20 57.26
58.18 811.30 57.18
60.47 812.20 57.25
62.83 814.00 57.39
65.45 818.50 57.74
68.01 822.10 58.03
70.94 829.30 58.59
73.99 837.40 59.23
-36.05 840.10 57.17
-33.39 832.00 56.56
-30.85 825.70 56.09
-28.46 822.10 55.82
-26.05 817.60 55.48
-23.71 814.00 55.20
-21.43 812.20 55.07
-19.20 811.30 55.00
-16.96 810.40 54.93
-14.72 808.60 54.80
-12.48 806.80 54.66
-10.27 805.90 54.59
-8.07 805.00 54.53
-5.86 803.20 54.39
-3.67 802.30 54.32
-1.48 800.50 54.19
0.70 799.60 54.12
2.88 800.50 54.19
5.05 800.50 54.19
7.23 800.50 54.19
9.39 798.70 54.05
11.58 799.60 54.12
13.79 801.40 54.25
15.99 802.30 54.32
18.17 802.30 54.32
20.31 800.50 54.18
22.46 799.60 54.11
24.66 800.50 54.18
26.87 801.40 54.25
29.09 802.30 54.32
31.28 802.30 54.31
33.46 802.30 54.31
35.64 802.30 54.31
37.92 804.10 54.45
40.11 804.10 54.45
42.35 805.00 54.51
44.60 805.90 54.58
46.91 807.70 54.71
49.10 807.70 54.71
51.43 809.50 54.85
53.70 810.40 54.91
55.98 811.30 54.98
58.18 811.30 54.98
60.47 812.20 55.04
62.76 813.10 55.11
65.29 816.70 55.38
67.76 819.40 55.58
70.77 827.50 56.19
73.73 834.70 56.73
77.20 846.40 57.62
-38.85 850.00 55.60
-35.96 838.30 54.75
-33.39 832.00 54.29
-30.85 825.70 53.83
-28.46 822.10 53.57
-26.09 818.50 53.31
-23.71 814.00 52.99
-21.41 811.30 52.79
-19.17 810.40 52.73
-16.94 809.50 52.66
-14.70 807.70 52.53
-12.47 805.90 52.40
-10.26 805.00 52.34
-8.07 805.00 52.34
-5.87 804.10 52.27
-3.67 802.30 52.14
-1.48 801.40 52.07
0.70 801.40 52.07
2.88 801.40 52.07
5.06 800.50 52.01
7.23 800.50 52.01
9.40 799.60 51.94
11.58 799.60 51.94
13.77 800.50 52.01
15.93 799.60 51.94
18.13 800.50 52.01
20.28 799.60 51.94
22.49 800.50 52.00
24.66 800.50 52.00
26.88 801.40 52.07
29.02 800.50 52.00
31.20 800.50 52.00
33.42 801.40 52.07
35.64 802.30 52.13
37.87 803.20 52.19
40.06 803.20 52.19
42.35 805.00 52.32
44.54 805.00 52.32
46.85 806.80 52.45
49.11 807.70 52.51
51.43 809.50 52.64
53.70 810.40 52.71
56.05 812.20 52.83
58.26 812.20 52.83
60.62 814.00 52.96
62.84 814.00 52.96
65.21 815.80 53.09
67.68 818.50 53.28
70.51 824.80 53.74
73.47 832.00 54.26
76.74 841.90 54.97
-38.67 846.40 53.02
-35.88 836.50 52.33
-33.31 830.20 51.89
-30.85 825.70 51.58
-28.46 822.10 51.33
-26.09 818.50 51.08
-23.71 814.00 50.77
-21.41 811.30 50.58
-19.17 810.40 50.52
-16.94 809.50 50.46
-14.68 806.80 50.27
-12.45 805.00 50.14
-10.26 805.00 50.14
-8.07 805.00 50.14
-5.87 804.10 50.08
-3.67 802.30 49.96
-1.48 800.50 49.83
0.70 800.50 49.83
2.88 801.40 49.89
5.06 800.50 49.83
7.23 799.60 49.77
9.39 798.70 49.71
11.56 798.70 49.71
13.75 799.60 49.77
15.91 798.70 49.70
18.08 798.70 49.70
20.23 797.80 49.64
22.46 799.60 49.77
24.63 799.60 49.76
26.88 801.40 49.89
28.98 799.60 49.76
31.16 799.60 49.76
33.33 799.60 49.76
35.55 800.50 49.82
37.83 802.30 49.95
40.01 802.30 49.94
42.30 804.10 50.07
44.54 805.00 50.13
46.73 805.00 50.13
48.92 805.00 50.13
51.31 807.70 50.31
53.57 808.60 50.37
55.91 810.40 50.50
58.19 811.30 50.56
60.47 812.20 50.62
62.68 812.20 50.62
65.05 814.00 50.74
67.52 816.70 50.93
70.26 822.10 51.30
73.12 828.40 51.74
76.20 836.50 52.30
79.80 849.10 53.17
-38.49 842.80 50.46
-35.75 833.80 49.86
-33.23 828.40 49.50
-30.78 823.90 49.21
-28.43 821.20 49.03
-26.03 816.70 48.73
-23.68 813.10 48.49
-21.38 810.40 48.31
-19.13 808.60 48.19
-16.90 807.70 48.13
-14.68 806.80 48.07
-12.44 804.10 47.89
-10.24 803.20 47.83
-8.05 803.20 47.83
-5.85 802.30 47.77
-3.66 800.50 47.65
-1.48 800.50 47.65
0.70 801.40 47.71
2.88 802.30 47.77
5.06 800.50 47.65
7.22 798.70 47.53
9.38 797.80 47.47
11.53 796.90 47.41
13.70 796.90 47.41
15.87 796.90 47.41
18.04 796.90 47.41
20.21 796.90 47.41
22.43 798.70 47.53
24.63 799.60 47.59
26.84 800.50 47.65
28.95 798.70 47.53
31.12 798.70 47.53
33.34 799.60 47.59
35.60 801.40 47.70
37.83 802.30 47.76
40.11 804.10 47.88
42.25 803.20 47.82
44.49 804.10 47.88
46.68 804.10 47.88
48.93 805.00 47.94
51.24 806.80 48.05
53.57 808.60 48.17
55.98 811.30 48.35
58.26 812.20 48.41
60.40 811.30 48.35
62.61 811.30 48.35
64.90 812.20 48.40
67.44 815.80 48.64
70.00 819.40 48.88
72.77 824.80 49.24
75.74 832.00 49.71
79.33 844.60 50.55
-38.40 841.00 48.04
-35.67 832.00 47.47
-33.11 825.70 47.07
-30.71 822.10 46.84
-28.36 819.40 46.67
-25.96 814.90 46.39
-23.62 811.30 46.16
-21.33 808.60 45.99
-19.08 806.80 45.87
-16.88 806.80 45.88
-14.67 805.90 45.82
-12.44 804.10 45.70
-10.24 803.20 45.65
-8.05 803.20 45.65
-5.85 802.30 45.59
-3.66 800.50 45.48
-1.48 798.70 45.36
0.70 799.60 45.42
2.88 801.40 45.53
5.05 799.60 45.42
7.21 797.80 45.30
9.35 796.00 45.19
11.51 795.10 45.13
13.70 796.90 45.25
15.89 797.80 45.30
18.06 797.80 45.30
20.21 796.90 45.24
22.43 798.70 45.36
24.63 799.60 45.42
26.84 800.50 45.47
28.99 799.60 45.41
31.16 799.60 45.41
33.34 799.60 45.41
35.56 800.50 45.47
37.78 801.40 45.52
40.06 803.20 45.64
42.20 802.30 45.58
44.38 802.30 45.58
46.56 802.30 45.58
48.87 804.10 45.69
51.12 805.00 45.74
53.51 807.70 45.91
55.77 808.60 45.97
58.05 809.50 46.03
60.25 809.50 46.02
62.53 810.40 46.08
64.90 812.20 46.19
67.44 815.80 46.42
69.92 818.50 46.59
72.50 822.10 46.81
75.38 828.40 47.21
78.77 839.20 47.90
-38.31 839.20 45.63
-35.58 830.20 45.09
-33.11 825.70 44.82
-30.67 821.20 44.55
-28.29 817.60 44.33
-25.90 813.10 44.06
-23.59 810.40 43.89
-21.33 808.60 43.79
-19.11 807.70 43.73
-16.88 806.80 43.68
-14.65 805.00 43.57
-12.42 803.20 43.46
-10.24 803.20 43.46
-8.04 802.30 43.41
-5.85 802.30 43.41
-3.66 799.60 43.24
-1.48 798.70 43.19
0.70 798.70 43.19
2.88 800.50 43.30
5.05 799.60 43.24
7.21 797.80 43.14
9.35 796.00 43.03
11.51 795.10 42.97
13.69 796.00 43.03
15.87 796.90 43.08
18.04 796.90 43.08
20.21 796.90 43.08
22.43 798.70 43.19
24.60 798.70 43.19
26.81 799.60 43.24
28.99 799.60 43.24
31.20 800.50 43.29
33.34 799.60 43.24
35.51 799.60 43.24
37.78 801.40 43.34
40.06 803.20 43.45
42.25 803.20 43.45
44.38 802.30 43.39
46.62 803.20 43.45
48.87 804.10 43.50
51.12 805.00 43.55
53.51 807.70 43.72
55.78 808.60 43.77
58.05 809.50 43.82
60.18 808.60 43.77
62.53 810.40 43.87
64.98 813.10 44.03
67.44 815.80 44.19
69.83 817.60 44.30
72.33 820.30 44.46
75.11 825.70 44.79
78.49 836.50 45.44
-41.19 850.00 43.96
-38.26 838.30 43.28
-35.58 830.20 42.82
-33.11 825.70 42.56
-30.67 821.20 42.30
-28.26 816.70 42.05
-25.87 812.20 41.79
-23.57 809.50 41.63
-21.33 808.60 41.58
-19.11 807.70 41.53
-16.86 805.90 41.43
-14.63 804.10 41.33
-12.41 802.30 41.22
-10.22 802.30 41.22
-8.03 801.40 41.17
-5.84 800.50 41.12
-3.66 799.60 41.07
-1.48 799.60 41.07
0.70 799.60 41.07
2.87 799.60 41.07
5.04 798.70 41.02
7.21 797.80 40.97
9.36 796.00 40.86
11.51 795.10 40.81
13.69 796.00 40.86
15.87 796.90 40.91
18.06 797.80 40.96
20.21 796.90 40.91
22.40 797.80 40.96
24.54 796.90 40.91
26.78 798.70 41.01
28.95 798.70 41.01
31.12 798.70 41.01
33.30 798.70 41.01
35.47 798.70 41.01
37.78 801.40 41.16
39.97 801.40 41.16
42.20 802.30 41.21
44.38 802.30 41.21
46.68 804.10 41.31
48.87 804.10 41.31
51.06 804.10 41.31
53.31 805.00 41.36
55.57 805.90 41.41
57.83 806.80 41.46
60.03 806.80 41.46
62.46 809.50 41.61
64.90 812.20 41.77
67.44 815.80 41.97
69.84 817.60 42.07
72.33 820.30 42.23
75.02 824.80 42.48
78.30 834.70 43.05
81.93 847.30 43.77
-41.09 848.20 41.53
-38.17 836.50 40.89
-35.54 829.30 40.50
-32.99 823.00 40.16
-30.60 819.40 39.97
-28.19 814.90 39.72
-25.84 811.30 39.53
-23.57 809.50 39.43
-21.36 809.50 39.43
-19.13 808.60 39.38
-16.86 805.90 39.23
-14.61 803.20 39.09
-12.38 800.50 38.94
-10.21 801.40 38.99
-8.01 799.60 38.89
-5.84 800.50 38.94
-3.66 799.60 38.89
-1.48 799.60 38.89
0.70 799.60 38.89
2.87 799.60 38.89
5.04 798.70 38.84
7.20 796.90 38.75
9.37 796.90 38.75
11.51 795.10 38.65
13.67 795.10 38.65
15.83 795.10 38.65
18.04 796.90 38.74
20.23 797.80 38.79
22.43 798.70 38.84
24.57 797.80 38.79
26.75 797.80 38.79
28.92 797.80 38.79
31.09 797.80 38.79
33.30 798.70 38.84
35.52 799.60 38.89
37.79 801.40 38.98
39.97 801.40 38.98
42.25 803.20 39.08
44.49 804.10 39.13
46.80 805.90 39.22
48.93 805.00 39.17
51.12 805.00 39.17
53.31 805.00 39.17
55.57 805.90 39.22
57.84 806.80 39.27
60.11 807.70 39.31
62.46 809.50 39.41
64.90 812.20 39.55
67.36 814.90 39.70
69.67 815.80 39.75
72.07 817.60 39.84
74.75 822.10 40.09
78.02 832.00 40.62
81.65 844.60 41.31
-40.99 846.40 39.11
-38.17 836.50 38.61
-35.50 828.40 38.19
-32.91 821.20 37.82
-30.52 817.60 37.64
-28.15 814.00 37.45
-25.84 811.30 37.32
-23.54 808.60 37.18
-21.31 807.70 37.13
-19.11 807.70 37.13
-16.84 805.00 36.99
-14.61 803.20 36.90
-12.38 800.50 36.76
-10.20 800.50 36.76
-8.00 798.70 36.67
-5.83 799.60 36.72
-3.66 800.50 36.76
-1.48 800.50 36.76
0.70 799.60 36.72
2.87 798.70 36.67
5.04 797.80 36.63
7.20 796.90 36.58
9.34 795.10 36.49
11.49 794.20 36.44
13.63 793.30 36.39
15.81 794.20 36.44
18.04 796.90 36.58
20.23 797.80 36.62
22.43 798.70 36.67
24.61 798.70 36.67
26.75 797.80 36.62
28.92 797.80 36.62
31.09 797.80 36.62
33.30 798.70 36.67
35.52 799.60 36.71
37.74 800.50 36.76
39.92 800.50 36.75
42.20 802.30 36.85
44.44 803.20 36.89
46.74 805.00 36.98
48.87 804.10 36.94
51.06 804.10 36.93
53.25 804.10 36.93
55.50 805.00 36.98
57.84 806.80 37.07
60.11 807.70 37.11
62.46 809.50 37.20
64.82 811.30 37.30
67.28 814.00 37.43
69.58 814.90 37.48
72.07 817.60 37.61
74.66 821.20 37.80
77.84 830.20 38.26
81.36 841.90 38.86
-40.95 845.50 36.75
-38.13 835.60 36.27
-35.41 826.60 35.84
-32.87 820.30 35.54
-30.49 816.70 35.36
-28.12 813.10 35.19
-25.87 812.20 35.15
-23.60 810.40 35.06
-21.33 808.60 34.97
-19.11 807.70 34.93
-16.84 805.00 34.80
-14.61 803.20 34.71
-12.38 800.50 34.58
-10.20 800.50 34.58
-8.02 800.50 34.59
-5.84 800.50 34.59
-3.67 801.40 34.63
-1.48 800.50 34.59
0.70 799.60 34.54
2.87 798.70 34.50
5.03 796.90 34.41
7.19 796.00 34.37
9.33 794.20 34.28
11.48 793.30 34.24
13.64 793.30 34.24
15.83 795.10 34.32
18.04 796.90 34.41
20.26 798.70 34.50
22.43 798.70 34.50
24.64 799.60 34.54
26.75 797.80 34.45
28.92 797.80 34.45
31.09 797.80 34.45
33.34 799.60 34.54
35.61 801.40 34.62
37.74 800.50 34.58
39.92 800.50 34.58
42.15 801.40 34.62
44.33 801.40 34.62
46.63 803.20 34.70
48.87 804.10 34.75
51.12 805.00 34.79
53.31 805.00 34.79
55.57 805.90 34.83
57.91 807.70 34.92
60.18 808.60 34.96
62.46 809.50 35.00
64.83 811.30 35.09
67.20 813.10 35.17
69.58 814.90 35.26
71.98 816.70 35.34
74.57 820.30 35.51
77.56 827.50 35.86
81.07 839.20 36.42
-40.90 844.60 34.40
-38.04 833.80 33.91
-35.37 825.70 33.54
-32.88 820.30 33.30
-30.49 816.70 33.14
-28.15 814.00 33.01
-25.87 812.20 32.93
-23.60 810.40 32.85
-21.31 807.70 32.73
-19.08 806.80 32.69
-16.86 805.90 32.65
-14.65 805.00 32.61
-12.43 803.20 32.53
-10.21 801.40 32.45
-8.01 799.60 32.37
-5.83 799.60 32.37
-3.66 800.50 32.41
-1.48 800.50 32.41
0.70 799.60 32.37
2.87 798.70 32.33
5.03 796.90 32.24
7.19 796.00 32.20
9.33 794.20 32.12
11.49 794.20 32.12
13.65 794.20 32.12
15.85 796.00 32.20
18.02 796.00 32.20
20.21 796.90 32.24
22.38 796.90 32.24
24.58 797.80 32.28
26.75 797.80 32.28
28.88 796.90 32.24
31.09 797.80 32.28
33.34 799.60 32.36
35.56 800.50 32.40
37.74 800.50 32.40
39.92 800.50 32.40
42.04 799.60 32.36
44.22 799.60 32.36
46.57 802.30 32.48
48.87 804.10 32.56
51.19 805.90 32.64
53.38 805.90 32.64
55.64 806.80 32.68
57.91 807.70 32.72
60.11 807.70 32.71
62.39 808.60 32.75
64.67 809.50 32.79
67.12 812.20 32.91
69.59 814.90 33.04
72.07 817.60 33.16
74.66 821.20 33.32
77.56 827.50 33.60
80.97 838.30 34.09
-40.71 841.00 31.93
-37.90 831.10 31.51
-35.33 824.80 31.25
-32.88 820.30 31.06
-30.45 815.80 30.87
-28.15 814.00 30.79
-25.90 813.10 30.76
-23.66 812.20 30.72
-21.36 809.50 30.61
-19.11 807.70 30.53
-16.89 806.80 30.49
-14.67 805.90 30.46
-12.44 804.10 30.38
-10.21 801.40 30.27
-8.01 799.60 30.19
-5.83 798.70 30.15
-3.66 799.60 30.19
-1.48 800.50 30.23
0.70 800.50 30.23
2.88 800.50 30.23
5.04 798.70 30.15
7.20 796.90 30.08
9.34 795.10 30.00
11.49 794.20 29.96
13.67 795.10 30.00
15.83 795.10 30.00
18.02 796.00 30.04
20.21 796.90 30.07
22.38 796.90 30.07
24.58 797.80 30.11
26.68 796.00 30.03
28.88 796.90 30.07
31.09 797.80 30.11
33.30 798.70 30.15
35.52 799.60 30.18
37.74 800.50 30.22
39.97 801.40 30.26
42.10 800.50 30.22
44.28 800.50 30.22
46.63 803.20 30.33
48.94 805.00 30.41
51.19 805.90 30.44
53.32 805.00 30.40
55.58 805.90 30.44
57.84 806.80 30.48
60.11 807.70 30.52
62.39 808.60 30.55
64.67 809.50 30.59
67.04 811.30 30.66
69.42 813.10 30.74
72.07 817.60 30.93
74.75 822.10 31.12
77.56 827.50 31.34
80.78 836.50 31.72
-40.61 839.20 29.56
-37.86 830.20 29.21
-35.29 823.90 28.96
-32.88 820.30 28.82
-30.53 817.60 28.72
-28.19 814.90 28.61
-25.90 813.10 28.54
-23.60 810.40 28.43
-21.34 808.60 28.36
-19.08 806.80 28.29
-16.89 806.80 28.29
-14.67 805.90 28.26
-12.46 805.00 28.22
-10.24 803.20 28.15
-8.03 801.40 28.08
-5.83 799.60 28.01
-3.66 799.60 28.01
-1.48 800.50 28.05
0.70 800.50 28.05
2.87 799.60 28.01
5.04 798.70 27.98
7.20 796.90 27.91
9.37 796.90 27.91
11.51 795.10 27.84
13.67 795.10 27.84
15.83 795.10 27.84
18.04 796.90 27.91
20.18 796.00 27.87
22.35 796.00 27.87
24.55 796.90 27.91
26.68 796.00 27.87
28.88 796.90 27.90
31.05 796.90 27.90
33.22 796.90 27.90
35.47 798.70 27.97
37.74 800.50 28.04
40.02 802.30 28.11
42.20 802.30 28.11
44.33 801.40 28.08
46.63 803.20 28.15
48.88 804.10 28.18
51.13 805.00 28.21
53.25 804.10 28.18
55.51 805.00 28.21
57.77 805.90 28.25
60.11 807.70 28.32
62.39 808.60 28.35
64.67 809.50 28.38
67.04 811.30 28.45
69.42 813.10 28.52
72.16 818.50 28.73
74.85 823.00 28.91
77.65 828.40 29.12
80.78 836.50 29.43
-40.51 837.40 27.20
-37.77 828.40 26.87
-35.25 823.00 26.68
-32.84 819.40 26.55
-30.49 816.70 26.45
-28.16 814.00 26.35
-25.87 812.20 26.29
-23.60 810.40 26.23
-21.36 809.50 26.19
-19.13 808.60 26.16
-16.87 805.90 26.06
-14.65 805.00 26.03
-12.44 804.10 26.00
-10.24 803.20 25.97
-8.05 803.20 25.97
-5.86 802.30 25.93
-3.67 802.30 25.93
-1.48 800.50 25.87
0.70 800.50 25.87
2.87 799.60 25.84
5.05 799.60 25.84
7.21 797.80 25.77
9.37 796.90 25.74
11.51 795.10 25.67
13.67 795.10 25.67
15.83 795.10 25.67
18.04 796.90 25.74
20.19 796.00 25.71
22.38 796.90 25.74
24.55 796.90 25.74
26.72 796.90 25.74
28.88 796.90 25.74
31.05 796.90 25.74
33.26 797.80 25.77
35.48 798.70 25.80
37.74 800.50 25.86
40.07 803.20 25.96
42.26 803.20 25.96
44.44 803.20 25.96
46.63 803.20 25.96
48.88 804.10 25.99
51.06 804.10 25.99
53.25 804.10 25.99
55.58 805.90 26.05
57.84 806.80 26.08
60.19 808.60 26.15
62.47 809.50 26.18
64.75 810.40 26.21
67.12 812.20 26.28
69.59 814.90 26.37
72.16 818.50 26.50
74.85 823.00 26.66
77.66 828.40 26.86
80.88 837.40 27.18
-40.51 837.40 24.91
-37.72 827.50 24.58
-35.20 822.10 24.40
-32.80 818.50 24.28
-30.49 816.70 24.22
-28.19 814.90 24.16
-25.90 813.10 24.11
-23.60 810.40 24.02
-21.34 808.60 23.96
-19.11 807.70 23.93
-16.87 805.90 23.87
-14.63 804.10 23.81
-12.41 802.30 23.75
-10.21 801.40 23.72
-8.05 803.20 23.78
-5.86 802.30 23.75
-3.68 803.20 23.78
-1.48 800.50 23.69
0.70 800.50 23.69
2.87 799.60 23.66
5.04 798.70 23.63
7.20 796.90 23.57
9.36 796.00 23.54
11.54 796.90 23.57
13.69 796.00 23.54
15.87 796.90 23.57
18.02 796.00 23.54
20.19 796.00 23.54
22.38 796.90 23.57
24.55 796.90 23.57
26.75 797.80 23.60
28.88 796.90 23.57
31.09 797.80 23.60
33.22 796.90 23.57
35.43 797.80 23.60
37.70 799.60 23.66
40.02 802.30 23.74
42.21 802.30 23.74
44.44 803.20 23.77
46.63 803.20 23.77
48.82 803.20 23.77
51.13 805.00 23.83
53.39 805.90 23.86
55.72 807.70 23.92
57.92 807.70 23.92
60.34 810.40 24.01
62.55 810.40 24.00
64.75 810.40 24.00
67.12 812.20 24.06
69.59 814.90 24.15
72.08 817.60 24.24
74.67 821.20 24.36
77.47 826.60 24.53
80.88 837.40 24.89
-40.56 838.30 22.64
-37.77 828.40 22.35
-35.25 823.00 22.18
-32.84 819.40 22.08
-30.53 817.60 22.02
-28.19 814.90 21.94
-25.87 812.20 21.86
-23.57 809.50 21.78
-21.36 809.50 21.78
-19.13 808.60 21.75
-16.87 805.90 21.67
-14.63 804.10 21.62
-12.40 801.40 21.54
-10.21 801.40 21.54
-8.04 802.30 21.57
-5.86 802.30 21.57
-3.68 803.20 21.59
-1.48 801.40 21.54
0.70 801.40 21.54
2.88 800.50 21.51
5.05 799.60 21.48
7.20 796.90 21.40
9.37 796.90 21.40
11.54 796.90 21.40
13.71 796.90 21.40
15.85 796.00 21.38
18.02 796.00 21.37
20.19 796.00 21.37
22.41 797.80 21.43
24.55 796.90 21.40
26.75 797.80 21.43
28.92 797.80 21.43
31.09 797.80 21.43
33.26 797.80 21.43
35.48 798.70 21.45
37.70 799.60 21.48
39.97 801.40 21.53
42.15 801.40 21.53
44.39 802.30 21.56
46.63 803.20 21.59
48.88 804.10 21.61
51.13 805.00 21.64
53.39 805.90 21.66
55.65 806.80 21.69
57.92 807.70 21.72
60.27 809.50 21.77
62.55 810.40 21.80
64.75 810.40 21.79
67.04 811.30 21.82
69.51 814.00 21.90
71.99 816.70 21.98
74.58 820.30 22.09
77.47 826.60 22.28
80.88 837.40 22.60
-40.66 840.10 20.40
-37.81 829.30 20.11
-35.25 823.00 19.94
-32.84 819.40 19.84
-30.53 817.60 19.79
-28.23 815.80 19.74
-25.87 812.20 19.65
-23.57 809.50 19.57
-21.34 808.60 19.55
-19.11 807.70 19.53
-16.87 805.90 19.48
-14.65 805.00 19.45
-12.43 803.20 19.40
-10.23 802.30 19.38
-8.05 803.20 19.40
-5.86 802.30 19.38
-3.67 802.30 19.38
-1.48 800.50 19.33
0.70 801.40 19.36
2.88 801.40 19.36
5.04 798.70 19.28
7.20 796.90 19.23
9.37 796.90 19.23
11.55 797.80 19.26
13.72 797.80 19.26
15.89 797.80 19.26
18.04 796.90 19.23
20.21 796.90 19.23
22.44 798.70 19.28
24.52 796.00 19.21
26.72 796.90 19.23
28.88 796.90 19.23
31.09 797.80 19.26
33.26 797.80 19.26
35.48 798.70 19.28
37.70 799.60 19.30
39.92 800.50 19.33
42.15 801.40 19.35
44.39 802.30 19.37
46.69 804.10 19.42
48.88 804.10 19.42
51.13 805.00 19.45
53.32 805.00 19.44
55.51 805.00 19.44
57.85 806.80 19.49
60.19 808.60 19.54
62.55 810.40 19.59
64.75 810.40 19.59
67.04 811.30 19.61
69.51 814.00 19.68
71.99 816.70 19.75
74.67 821.20 19.87
77.47 826.60 20.02
80.98 838.30 20.33
-40.95 845.50 18.23
-38.04 833.80 17.95
-35.38 825.70 17.75
-33.00 823.00 17.69
-30.60 819.40 17.60
-28.26 816.70 17.54
-25.87 812.20 17.43
-23.60 810.40 17.39
-21.31 807.70 17.32
-19.11 807.70 17.32
-16.89 806.80 17.30
-14.69 806.80 17.30
-12.46 805.00 17.26
-10.27 805.00 17.26
-8.07 805.00 17.26
-5.87 804.10 17.24
-3.67 802.30 17.20
-1.48 800.50 17.15
0.70 802.30 17.20
2.88 801.40 17.17
5.05 799.60 17.13
7.20 796.90 17.07
9.37 796.90 17.07
11.55 797.80 17.09
13.74 798.70 17.11
15.90 797.80 17.09
18.07 797.80 17.09
20.24 797.80 17.09
22.41 797.80 17.09
24.55 796.90 17.06
26.75 797.80 17.09
28.96 798.70 17.11
31.13 798.70 17.11
33.35 799.60 17.13
35.57 800.50 17.15
37.79 801.40 17.17
39.97 801.40 17.17
42.21 802.30 17.19
44.45 803.20 17.21
46.69 804.10 17.23
48.94 805.00 17.25
51.13 805.00 17.25
53.32 805.00 17.25
55.44 804.10 17.23
57.85 806.80 17.29
60.19 808.60 17.34
62.63 811.30 17.40
64.91 812.20 17.42
67.21 813.10 17.44
69.59 814.90 17.48
72.08 817.60 17.55
74.85 823.00 17.68
77.75 829.30 17.83
81.37 841.90 18.13
-41.05 847.30 15.95
-38.18 836.50 15.72
-35.46 827.50 15.53
-33.08 824.80 15.48
-30.64 820.30 15.38
-28.30 817.60 15.33
-25.91 813.10 15.23
-23.60 810.40 15.18
-21.31 807.70 15.12
-19.11 807.70 15.12
-16.91 807.70 15.12
-14.73 808.60 15.14
-12.46 805.00 15.07
-10.27 805.00 15.07
-8.06 804.10 15.05
-5.86 803.20 15.03
-3.67 801.40 14.99
-1.48 801.40 14.99
0.70 802.30 15.01
2.88 801.40 14.99
5.05 799.60 14.95
7.21 797.80 14.92
9.37 796.90 14.90
11.55 797.80 14.92
13.72 797.80 14.92
15.88 796.90 14.90
18.04 796.90 14.90
20.24 797.80 14.92
22.44 798.70 14.93
24.61 798.70 14.93
26.82 799.60 14.95
28.99 799.60 14.95
31.17 799.60 14.95
33.35 799.60 14.95
35.61 801.40 14.99
37.89 803.20 15.03
40.07 803.20 15.03
42.31 804.10 15.04
44.56 805.00 15.06
46.81 805.90 15.08
49.00 805.90 15.08
51.20 805.90 15.08
53.39 805.90 15.08
55.58 805.90 15.08
57.85 806.80 15.10
60.19 808.60 15.13
62.70 812.20 15.21
65.08 814.00 15.25
67.46 815.80 15.28
69.77 816.70 15.30
72.17 818.50 15.34
74.85 823.00 15.43
77.85 830.20 15.58
81.66 844.60 15.88
-38.32 839.20 13.48
-35.63 831.10 13.34
-33.12 825.70 13.24
-30.75 823.00 13.19
-28.37 819.40 13.13
-26.00 815.80 13.07
-23.63 811.30 12.98
-21.31 807.70 12.92
-19.09 806.80 12.90
-16.93 808.60 12.94
-14.73 808.60 12.94
-12.47 805.90 12.89
-10.27 805.00 12.87
-8.06 804.10 12.86
-5.86 803.20 12.84
-3.66 800.50 12.79
-1.48 800.50 12.79
0.70 799.60 12.78
2.87 798.70 12.76
5.04 798.70 12.76
7.22 798.70 12.76
9.39 798.70 12.76
11.55 797.80 12.74
13.71 796.90 12.73
15.86 796.00 12.71
18.02 796.00 12.71
20.24 797.80 12.74
22.44 798.70 12.76
24.64 799.60 12.78
26.82 799.60 12.78
29.07 801.40 12.81
31.17 799.60 12.77
33.39 800.50 12.79
35.61 801.40 12.81
37.89 803.20 12.84
40.13 804.10 12.85
42.31 804.10 12.85
44.56 805.00 12.87
46.75 805.00 12.87
49.00 805.90 12.88
51.32 807.70 12.92
53.59 808.60 12.93
55.86 809.50 12.95
58.06 809.50 12.95
60.49 812.20 12.99
62.86 814.00 13.03
65.24 815.80 13.06
67.54 816.70 13.07
69.85 817.60 13.09
72.35 820.30 13.14
75.04 824.80 13.22
78.13 832.90 13.36
82.15 849.10 13.65
-38.32 839.20 11.18
-35.55 829.30 11.04
-33.08 824.80 10.97
-30.75 823.00 10.95
-28.37 819.40 10.89
-26.07 817.60 10.87
-23.69 813.10 10.80
-21.39 810.40 10.76
-19.11 807.70 10.72
-16.91 807.70 10.72
-14.71 807.70 10.72
-12.47 805.90 10.69
-10.27 805.00 10.68
-8.05 803.20 10.65
-5.86 802.30 10.64
-3.66 800.50 10.61
-1.48 799.60 10.60
0.70 799.60 10.60
2.87 798.70 10.59
5.05 799.60 10.60
7.23 799.60 10.60
9.40 799.60 10.60
11.55 797.80 10.57
13.67 795.10 10.53
15.84 795.10 10.53
18.02 796.00 10.55
20.26 798.70 10.59
22.47 799.60 10.60
24.70 801.40 10.63
26.85 800.50 10.61
29.03 800.50 10.61
31.21 800.50 10.61
33.47 802.30 10.64
35.70 803.20 10.65
37.94 804.10 10.66
40.13 804.10 10.66
42.37 805.00 10.68
44.56 805.00 10.68
46.81 805.90 10.69
49.06 806.80 10.70
51.39 808.60 10.73
53.66 809.50 10.74
55.93 810.40 10.75
58.14 810.40 10.75
60.49 812.20 10.78
62.94 814.90 10.82
65.32 816.70 10.85
67.63 817.60 10.86
70.03 819.40 10.89
72.52 822.10 10.93
75.31 827.50 11.00
78.51 836.50 11.14
-38.50 842.80 8.93
-35.64 831.10 8.79
-33.08 824.80 8.72
-30.75 823.00 8.70
-28.44 821.20 8.68
-26.13 819.40 8.66
-23.78 815.80 8.61
-21.44 812.20 8.57
-19.13 808.60 8.53
-16.89 806.80 8.51
-14.71 807.70 8.52
-12.49 806.80 8.51
-10.28 805.90 8.50
-8.06 804.10 8.48
-5.86 803.20 8.47
-3.67 802.30 8.45
-1.48 800.50 8.43
0.70 799.60 8.42
2.87 798.70 8.41
5.06 800.50 8.43
7.24 800.50 8.43
9.42 800.50 8.43
11.57 798.70 8.41
13.71 796.90 8.39
15.86 796.00 8.38
18.04 796.90 8.39
20.26 798.70 8.41
22.47 799.60 8.42
24.70 801.40 8.44
26.89 801.40 8.44
29.10 802.30 8.45
31.29 802.30 8.45
33.52 803.20 8.46
35.70 803.20 8.46
37.94 804.10 8.47
40.13 804.10 8.47
42.31 804.10 8.47
44.56 805.00 8.48
46.87 806.80 8.50
49.13 807.70 8.52
51.45 809.50 8.54
53.66 809.50 8.54
55.93 810.40 8.55
58.28 812.20 8.57
60.64 814.00 8.59
63.02 815.80 8.61
65.32 816.70 8.62
67.63 817.60 8.63
70.11 820.30 8.66
72.79 824.80 8.71
75.77 832.00 8.80
79.17 842.80 8.92
-38.55 843.70 6.63
-35.68 832.00 6.53
-33.16 826.60 6.48
-30.79 823.90 6.46
-28.44 821.20 6.43
-26.13 819.40 6.42
-23.84 817.60 6.40
-21.50 814.00 6.37
-19.16 809.50 6.33
-16.89 806.80 6.31
-14.69 806.80 6.31
-12.49 806.80 6.31
-10.28 805.90 6.30
-8.06 804.10 6.29
-5.86 803.20 6.28
-3.68 803.20 6.28
-1.49 802.30 6.27
0.70 801.40 6.26
2.88 801.40 6.26
5.06 800.50 6.25
7.23 799.60 6.25
9.39 798.70 6.24
11.55 797.80 6.23
13.71 796.90 6.22
15.88 796.90 6.22
18.07 797.80 6.23
20.29 799.60 6.25
22.47 799.60 6.25
24.67 800.50 6.25
26.85 800.50 6.25
29.07 801.40 6.26
31.29 802.30 6.27
33.52 803.20 6.28
35.75 804.10 6.28
37.98 805.00 6.29
40.13 804.10 6.28
42.37 805.00 6.29
44.56 805.00 6.29
46.93 807.70 6.31
49.25 809.50 6.33
51.45 809.50 6.33
53.59 808.60 6.32
55.86 809.50 6.33
58.28 812.20 6.35
60.64 814.00 6.37
63.02 815.80 6.38
65.32 816.70 6.39
67.79 819.40 6.41
70.28 822.10 6.44
73.06 827.50 6.48
76.13 835.60 6.56
79.64 847.30 6.66
-38.87 850.00 4.35
-35.89 836.50 4.28
-33.28 829.30 4.24
-30.79 823.90 4.21
-28.44 821.20 4.19
-26.13 819.40 4.18
-23.84 817.60 4.17
-21.50 814.00 4.15
-19.18 810.40 4.13
-16.91 807.70 4.11
-14.71 807.70 4.11
-12.52 808.60 4.12
-10.32 808.60 4.12
-8.08 805.90 4.10
-5.89 805.90 4.10
-3.69 805.00 4.10
-1.49 804.10 4.09
0.70 803.20 4.09
2.88 802.30 4.08
5.06 801.40 4.08
7.24 800.50 4.07
9.42 800.50 4.07
11.60 800.50 4.07
13.79 801.40 4.08
15.94 799.60 4.07
18.11 799.60 4.07
20.29 799.60 4.07
22.47 799.60 4.07
24.70 801.40 4.08
26.92 802.30 4.08
29.14 803.20 4.09
31.37 804.10 4.09
33.52 803.20 4.09
35.70 803.20 4.09
37.98 805.00 4.10
40.23 805.90 4.10
42.47 806.80 4.11
44.67 806.80 4.11
46.99 808.60 4.12
49.37 811.30 4.13
51.58 811.30 4.13
53.72 810.40 4.13
56.07 812.20 4.14
58.50 814.90 4.15
60.79 815.80 4.16
63.02 815.80 4.16
65.32 816.70 4.16
67.79 819.40 4.18
70.46 823.90 4.20
73.32 830.20 4.24
76.50 839.20 4.29
-35.98 838.30 1.99
-33.28 829.30 1.97
-30.75 823.00 1.95
-28.37 819.40 1.94
-26.10 818.50 1.94
-23.84 817.60 1.94
-21.55 815.80 1.93
-19.23 812.20 1.92
-16.95 809.50 1.92
-14.73 808.60 1.92
-12.54 809.50 1.92
-10.32 808.60 1.92
-8.10 807.70 1.91
-5.89 805.90 1.91
-3.69 805.00 1.91
-1.49 804.10 1.90
0.70 803.20 1.90
2.89 803.20 1.90
5.08 803.20 1.90
7.26 802.30 1.90
9.44 802.30 1.90
11.61 801.40 1.90
13.79 801.40 1.90
15.98 801.40 1.90
18.16 801.40 1.90
20.34 801.40 1.90
22.52 801.40 1.90
24.67 800.50 1.89
26.89 801.40 1.90
29.11 802.30 1.90
31.33 803.20 1.90
33.47 802.30 1.90
35.70 803.20 1.90
37.98 805.00 1.91
40.28 806.80 1.91
42.53 807.70 1.91
44.78 808.60 1.91
47.10 810.40 1.92
49.43 812.20 1.92
51.71 813.10 1.93
53.92 813.10 1.93
56.14 813.10 1.93
58.50 814.90 1.93
60.79 815.80 1.93
63.09 816.70 1.94
65.48 818.50 1.94
68.04 822.10 1.95
70.71 826.60 1.96
73.59 832.90 1.98
77.05 844.60 2.01
-36.28 844.60 -0.30
-33.40 832.00 -0.30
-30.79 823.90 -0.30
-28.40 820.30 -0.29
-26.07 817.60 -0.29
-23.81 816.70 -0.29
-21.52 814.90 -0.29
-19.28 814.00 -0.29
-17.04 813.10 -0.29
-14.78 811.30 -0.29
-12.57 811.30 -0.29
-10.34 810.40 -0.29
-8.12 809.50 -0.29
-5.90 807.70 -0.29
-3.69 806.80 -0.29
-1.49 805.00 -0.29
0.70 805.90 -0.29
2.90 805.00 -0.29
5.10 805.90 -0.29
7.28 805.00 -0.29
9.49 805.90 -0.29
11.67 805.00 -0.29
13.86 805.00 -0.29
16.02 803.20 -0.29
18.18 802.30 -0.29
20.39 803.20 -0.29
22.61 804.10 -0.29
24.80 804.10 -0.29
26.99 804.10 -0.29
29.25 805.90 -0.29
31.41 805.00 -0.29
33.56 804.10 -0.29
35.70 803.20 -0.29
37.98 805.00 -0.29
40.33 807.70 -0.29
42.69 810.40 -0.29
44.95 811.30 -0.29
47.28 813.10 -0.29
49.55 814.00 -0.29
51.84 814.90 -0.29
54.12 815.80 -0.29
56.42 816.70 -0.29
58.72 817.60 -0.29
60.87 816.70 -0.29
63.17 817.60 -0.29
65.64 820.30 -0.29
68.29 824.80 -0.30
71.06 830.20 -0.30
74.12 838.30 -0.30
-36.50 849.10 -2.63
-33.52 834.70 -2.58
-30.83 824.80 -2.55
-28.44 821.20 -2.54
-26.10 818.50 -2.53
-23.84 817.60 -2.52
-21.55 815.80 -2.52
-19.30 814.90 -2.52
-17.06 814.00 -2.51
-14.82 813.10 -2.51
-12.58 812.20 -2.51
-10.34 810.40 -2.50
-8.12 809.50 -2.50
-5.89 806.80 -2.49
-3.69 806.80 -2.49
-1.49 805.90 -2.48
0.70 806.80 -2.49
2.90 806.80 -2.49
5.11 807.70 -2.49
7.30 806.80 -2.49
9.49 805.90 -2.48
11.68 805.90 -2.48
13.86 805.00 -2.48
16.04 804.10 -2.48
18.23 804.10 -2.48
20.42 804.10 -2.48
22.58 803.20 -2.47
24.74 802.30 -2.47
26.95 803.20 -2.47
29.21 805.00 -2.48
31.41 805.00 -2.48
33.56 804.10 -2.48
35.75 804.10 -2.48
38.08 806.80 -2.49
40.38 808.60 -2.49
42.69 810.40 -2.50
45.01 812.20 -2.51
47.34 814.00 -2.51
49.62 814.90 -2.51
51.84 814.90 -2.51
54.12 815.80 -2.52
56.49 817.60 -2.52
58.72 817.60 -2.52
60.87 816.70 -2.52
63.33 819.40 -2.53
65.88 823.00 -2.54
68.79 830.20 -2.57
71.57 835.60 -2.58
74.92 846.40 -2.62
-33.73 839.20 -4.90
-30.94 827.50 -4.82
-28.51 823.00 -4.79
-26.16 820.30 -4.77
-23.89 819.40 -4.77
-21.58 816.70 -4.75
-19.35 816.70 -4.75
-17.08 814.90 -4.74
-14.85 814.90 -4.74
-12.60 813.10 -4.73
-10.36 811.30 -4.72
-8.13 810.40 -4.71
-5.92 809.50 -4.70
-3.71 809.50 -4.70
-1.50 809.50 -4.70
0.71 809.50 -4.70
2.91 808.60 -4.70
5.11 808.60 -4.70
7.31 807.70 -4.69
9.50 806.80 -4.69
11.70 806.80 -4.69
13.90 806.80 -4.69
16.08 805.90 -4.68
18.25 805.00 -4.67
20.44 805.00 -4.67
22.64 805.00 -4.67
24.83 805.00 -4.67
27.06 805.90 -4.68
29.29 806.80 -4.69
31.41 805.00 -4.67
33.60 805.00 -4.67
35.79 805.00 -4.67
38.13 807.70 -4.69
40.38 808.60 -4.70
42.74 811.30 -4.71
45.01 812.20 -4.72
47.39 814.90 -4.74
49.62 814.90 -4.74
51.84 814.90 -4.74
54.19 816.70 -4.75
56.56 818.50 -4.76
58.93 820.30 -4.77
61.17 820.30 -4.77
63.71 823.90 -4.79
66.36 828.40 -4.82
69.29 835.60 -4.87
72.43 844.60 -4.93
-33.97 844.60 -7.25
-31.13 832.00 -7.13
-28.65 826.60 -7.07
-26.23 822.10 -7.03
-23.95 821.20 -7.02
-21.63 818.50 -7.00
-19.37 817.60 -6.99
-17.10 815.80 -6.97
-14.87 815.80 -6.97
-12.61 814.00 -6.95
-10.37 812.20 -6.94
-8.12 809.50 -6.91
-5.91 808.60 -6.90
-3.71 809.50 -6.91
-1.50 809.50 -6.91
0.71 809.50 -6.91
2.91 808.60 -6.90
5.11 808.60 -6.90
7.31 807.70 -6.89
