ply
format ascii 1.0
comment generated by: python
element vertex 1537
property float x
property float y
property float z
property uchar red
property uchar green
property uchar blue
end_header
44.06 833.00 100.03 206 224 117
46.84 842.00 101.11 192 210 103
50.19 860.00 103.27 190 208 101
54.19 887.00 106.51 189 206 99
-23.03 869.00 102.00 229 250 149
-20.15 848.00 99.54 249 255 173
-17.66 840.00 98.60 252 255 179
-15.27 835.00 98.02 251 255 173
-12.91 830.00 97.43 246 255 152
-10.55 823.00 96.61 251 255 154
-8.26 820.00 96.26 251 255 156
-6.00 818.00 96.02 251 255 154
-3.76 817.00 95.91 250 255 156
-1.52 816.00 95.79 252 255 163
0.72 817.00 95.91 253 255 165
2.95 817.00 95.91 251 255 151
5.18 816.00 95.79 252 255 152
7.41 815.00 95.67 254 255 154
9.64 815.00 95.67 255 255 160
11.86 814.00 95.55 250 255 150
14.07 813.00 95.43 248 255 144
16.28 812.00 95.32 251 255 151
18.45 810.00 95.08 246 255 143
20.70 811.00 95.20 241 255 135
22.95 812.00 95.31 236 255 133
25.23 814.00 95.55 229 247 134
27.49 815.00 95.66 235 254 139
29.72 815.00 95.66 237 255 141
32.03 817.00 95.89 233 252 142
34.35 819.00 96.13 230 248 142
36.77 823.00 96.59 209 231 107
39.12 825.00 96.83 208 228 111
41.53 828.00 97.18 212 232 115
43.95 831.00 97.52 214 232 126
46.62 838.00 98.34 198 216 110
49.55 849.00 99.63 194 210 109
52.85 865.00 101.51 190 204 109
57.20 896.00 105.14 187 201 106
-26.17 895.00 102.61 222 241 149
-22.90 864.00 99.06 239 255 153
-20.18 849.00 97.34 250 255 177
-17.71 842.00 96.54 250 255 177
-15.29 836.00 95.85 251 255 173
-12.91 830.00 95.16 253 255 169
-10.56 824.00 94.48 254 255 166
-8.28 822.00 94.25 252 255 158
-6.00 818.00 93.79 253 255 158
-3.75 816.00 93.56 250 255 156
-1.52 815.00 93.45 249 255 161
0.72 816.00 93.56 245 255 148
2.95 815.00 93.45 246 255 142
5.17 814.00 93.33 251 255 148
7.38 812.00 93.10 250 255 147
9.62 813.00 93.22 251 255 148
11.86 814.00 93.33 244 255 142
14.09 814.00 93.33 241 255 142
16.30 813.00 93.21 246 255 152
18.48 811.00 92.98 242 255 142
20.70 811.00 92.98 239 255 139
22.97 813.00 93.21 234 253 138
25.26 815.00 93.44 222 242 122
27.53 816.00 93.55 227 247 127
29.76 816.00 93.55 227 245 139
31.99 816.00 93.55 226 243 142
34.27 817.00 93.66 220 237 136
36.73 822.00 94.23 210 229 119
39.12 825.00 94.57 203 224 104
41.48 827.00 94.80 207 227 112
43.85 829.00 95.03 212 230 124
46.40 834.00 95.60 199 217 111
49.09 841.00 96.40 196 213 110
52.00 851.00 97.54 194 211 105
55.54 870.00 99.71 190 207 101
-25.77 881.00 98.60 230 250 153
-22.82 861.00 96.36 248 255 167
-20.20 850.00 95.13 248 255 175
-17.73 843.00 94.35 251 255 178
-15.28 835.00 93.45 245 255 164
-12.91 830.00 92.90 252 255 169
-10.56 824.00 92.22 255 255 174
-8.30 824.00 92.23 249 255 150
-6.02 820.00 91.78 250 255 155
-3.76 817.00 91.44 247 255 141
-1.51 813.00 91.00 248 255 146
0.71 813.00 91.00 249 255 143
2.94 813.00 91.00 247 255 145
5.17 813.00 90.99 252 255 152
7.37 811.00 90.77 249 255 145
9.59 811.00 90.77 246 255 140
11.82 811.00 90.77 241 255 134
14.05 812.00 90.88 241 255 142
16.28 812.00 90.88 244 255 141
18.48 811.00 90.77 242 255 139
20.70 811.00 90.77 237 255 131
22.95 812.00 90.88 227 251 119
25.23 814.00 91.10 221 244 112
27.50 815.00 91.21 223 244 119
29.73 815.00 91.21 229 246 137
32.00 816.00 91.32 225 243 136
34.31 818.00 91.54 225 244 134
36.73 822.00 91.99 215 234 124
39.08 824.00 92.21 206 226 119
41.48 827.00 92.54 206 224 125
43.75 827.00 92.54 209 229 123
46.12 829.00 92.76 207 227 121
48.68 834.00 93.32 198 216 110
51.39 841.00 94.10 191 209 98
54.46 853.00 95.44 188 207 90
58.39 877.00 98.12 183 202 85
-25.56 874.00 95.43 240 255 164
-22.75 858.00 93.68 239 255 155
-20.16 848.00 92.59 241 255 155
-17.69 841.00 91.83 235 255 129
-15.24 833.00 90.95 241 255 151
-12.88 828.00 90.41 240 255 142
-10.55 823.00 89.86 240 255 132
-8.27 821.00 89.65 243 255 133
-6.00 818.00 89.32 250 255 147
-3.75 815.00 88.99 245 255 143
-1.51 813.00 88.77 248 255 148
0.71 812.00 88.66 251 255 152
2.93 811.00 88.56 248 255 148
5.14 809.00 88.34 251 255 152
7.35 808.00 88.23 250 255 148
9.56 808.00 88.23 246 255 141
11.77 808.00 88.23 244 255 138
14.02 810.00 88.44 244 255 144
16.22 809.00 88.33 238 255 124
18.41 808.00 88.22 237 255 124
20.62 808.00 88.22 238 255 127
22.86 809.00 88.33 235 255 126
25.11 810.00 88.44 234 255 119
27.43 813.00 88.76 223 248 105
29.66 813.00 88.76 221 243 114
31.92 814.00 88.87 226 248 124
34.19 815.00 88.98 223 244 124
36.56 818.00 89.30 220 240 126
38.89 820.00 89.52 213 233 126
41.18 821.00 89.63 209 227 131
43.48 822.00 89.73 208 226 130
45.90 825.00 90.06 207 226 123
48.39 829.00 90.49 206 226 112
51.03 835.00 91.14 197 216 105
53.69 841.00 91.80 181 202 81
57.06 857.00 93.54 179 201 77
61.14 882.00 96.27 179 201 77
-28.41 888.00 94.53 224 249 149
-25.33 866.00 92.19 233 255 149
-22.64 854.00 90.91 238 255 141
-20.06 844.00 89.85 236 255 139
-17.58 836.00 89.00 239 255 135
-15.17 829.00 88.25 235 255 137
-12.82 824.00 87.72 238 255 128
-10.49 818.00 87.08 245 255 140
-8.21 815.00 86.76 245 255 135
-5.98 815.00 86.76 248 255 143
-3.74 813.00 86.55 250 255 148
-1.51 812.00 86.45 247 255 141
0.71 811.00 86.34 250 255 151
2.93 811.00 86.34 250 255 150
5.15 810.00 86.23 249 255 149
7.35 808.00 86.02 247 255 141
9.55 807.00 85.91 245 255 142
11.76 807.00 85.91 244 255 139
13.99 808.00 86.02 246 255 152
16.18 807.00 85.91 248 255 157
18.39 807.00 85.91 249 255 149
20.60 807.00 85.91 245 255 139
22.81 807.00 85.91 245 255 141
25.02 807.00 85.91 244 255 141
27.30 809.00 86.12 235 255 129
29.58 811.00 86.33 231 253 124
31.84 812.00 86.43 232 253 128
34.11 813.00 86.54 226 247 126
36.42 815.00 86.75 224 245 125
38.75 817.00 86.96 225 243 136
41.09 819.00 87.17 211 228 127
43.43 821.00 87.38 215 230 135
45.79 823.00 87.59 207 225 118
48.16 825.00 87.80 201 224 96
50.66 829.00 88.22 197 218 98
53.19 833.00 88.65 196 213 110
56.26 845.00 89.92 191 207 108
59.68 861.00 91.62 183 201 94
64.06 889.00 94.60 178 198 84
-27.99 875.00 90.75 228 252 148
-25.10 858.00 88.99 236 255 145
-22.46 847.00 87.85 235 255 129
-19.92 838.00 86.92 239 255 128
-17.48 831.00 86.19 239 255 134
-15.09 825.00 85.57 242 255 137
-12.76 820.00 85.05 245 255 142
-10.45 815.00 84.54 250 255 150
-8.18 812.00 84.23 250 255 150
-5.95 811.00 84.12 252 255 158
-3.72 809.00 83.91 252 255 169
-1.51 809.00 83.91 249 255 150
0.71 810.00 84.02 250 255 156
2.93 810.00 84.02 247 255 152
5.14 809.00 83.91 247 255 150
7.33 806.00 83.60 247 255 150
9.54 806.00 83.60 245 255 148
11.76 807.00 83.71 248 255 159
13.99 808.00 83.81 250 255 169
16.18 807.00 83.70 253 255 173
18.39 807.00 83.70 253 255 165
20.57 806.00 83.60 254 255 166
22.78 806.00 83.60 246 255 147
25.02 807.00 83.70 245 255 145
27.30 809.00 83.91 243 255 143
29.55 810.00 84.01 237 255 131
31.81 811.00 84.11 234 255 130
33.98 810.00 84.00 231 251 130
36.25 811.00 84.11 225 246 126
38.56 813.00 84.31 220 240 123
40.99 817.00 84.72 212 231 121
43.33 819.00 84.93 215 232 131
45.68 821.00 85.13 213 231 124
47.99 822.00 85.24 200 220 103
50.36 824.00 85.44 203 225 101
52.74 826.00 85.65 198 216 110
55.60 835.00 86.58 194 212 105
58.79 848.00 87.92 188 208 101
62.55 868.00 89.99 184 204 97
66.79 893.00 92.58 178 197 94
-30.84 888.00 89.67 221 249 137
-27.58 862.00 87.05 240 255 156
-24.81 848.00 85.63 239 255 146
-22.25 839.00 84.73 242 255 131
-19.80 833.00 84.12 247 255 139
-17.42 828.00 83.62 243 255 132
-15.04 822.00 83.01 243 255 134
-12.71 817.00 82.51 247 255 142
-10.41 812.00 82.00 251 255 152
-8.17 810.00 81.80 250 255 150
-5.94 809.00 81.70 251 255 154
-3.72 809.00 81.70 253 255 169
-1.51 808.00 81.60 253 255 175
0.71 809.00 81.70 253 255 165
2.93 809.00 81.70 252 255 161
5.14 809.00 81.70 250 255 155
7.33 806.00 81.40 245 255 151
9.54 806.00 81.40 245 255 153
11.76 807.00 81.50 248 255 162
13.99 808.00 81.60 247 255 169
16.20 808.00 81.60 249 255 171
18.39 807.00 81.50 252 255 174
20.60 807.00 81.50 251 255 171
22.81 807.00 81.50 246 255 155
25.02 807.00 81.49 241 255 150
27.27 808.00 81.59 241 255 149
29.51 809.00 81.69 235 255 114
31.77 810.00 81.79 234 255 126
33.94 809.00 81.69 232 254 130
36.16 809.00 81.69 230 253 125
38.42 810.00 81.79 228 253 117
40.84 814.00 82.19 223 246 111
43.17 816.00 82.39 219 241 113
45.46 817.00 82.49 211 233 109
47.81 819.00 82.69 205 225 110
50.18 821.00 82.89 203 222 111
52.55 823.00 83.09 205 220 127
55.14 828.00 83.59 196 214 107
58.10 838.00 84.59 188 208 94
61.40 852.00 86.00 188 206 100
65.00 869.00 87.72 180 196 97
69.62 898.00 90.64 180 196 97
-30.25 871.00 85.57 235 255 138
-27.26 852.00 83.71 240 255 142
-24.57 840.00 82.53 243 255 143
-22.11 834.00 81.94 247 255 144
-19.73 830.00 81.55 244 255 141
-17.38 826.00 81.16 246 255 153
-15.02 821.00 80.67 249 255 155
-12.70 816.00 80.18 250 255 156
-10.41 812.00 79.78 250 255 162
-8.17 810.00 79.59 252 255 160
-5.94 809.00 79.49 249 255 149
-3.72 808.00 79.39 246 255 141
-1.50 807.00 79.29 251 255 159
0.71 807.00 79.29 251 255 160
2.91 806.00 79.20 253 255 164
5.12 806.00 79.20 254 255 163
7.31 804.00 79.00 250 255 159
9.51 804.00 79.00 249 255 157
11.73 805.00 79.10 246 255 144
13.95 806.00 79.19 248 255 151
16.16 806.00 79.19 248 255 160
18.35 805.00 79.09 244 255 153
20.55 805.00 79.09 247 255 155
22.76 805.00 79.09 243 255 144
24.99 806.00 79.19 243 255 144
27.23 807.00 79.29 241 255 146
29.48 808.00 79.38 236 255 122
31.73 809.00 79.48 233 255 125
33.95 809.00 79.48 235 255 141
36.16 809.00 79.48 232 254 129
38.38 809.00 79.47 228 251 119
40.74 812.00 79.77 231 253 124
43.02 813.00 79.86 223 246 114
45.35 815.00 80.06 217 237 116
47.64 816.00 80.15 214 233 116
50.06 819.00 80.45 208 226 113
52.36 820.00 80.54 208 222 131
54.94 825.00 81.03 200 218 111
57.68 832.00 81.71 196 216 99
60.61 841.00 82.60 190 208 101
63.73 852.00 83.67 186 204 98
67.46 870.00 85.44 179 197 91
-33.16 885.00 84.53 225 255 116
-29.80 858.00 81.95 236 255 135
-26.97 843.00 80.52 243 255 143
-24.37 833.00 79.57 244 255 146
-22.01 830.00 79.28 242 255 142
-19.66 827.00 78.99 243 255 146
-17.29 822.00 78.52 245 255 153
-14.97 818.00 78.14 248 255 156
-12.67 814.00 77.75 248 255 155
-10.40 811.00 77.47 253 255 164
-8.16 809.00 77.28 250 255 159
-5.93 808.00 77.18 251 255 157
-3.72 808.00 77.18 250 255 151
-1.50 807.00 77.09 248 255 143
0.71 805.00 76.90 250 255 151
2.90 803.00 76.71 251 255 165
5.10 803.00 76.71 253 255 167
7.30 803.00 76.71 251 255 158
9.50 803.00 76.70 251 255 151
11.69 802.00 76.61 248 255 143
13.90 803.00 76.70 249 255 154
16.08 802.00 76.61 246 255 151
18.30 803.00 76.70 248 255 153
20.50 803.00 76.70 248 255 151
22.73 804.00 76.80 246 255 143
24.96 805.00 76.89 248 255 145
27.17 805.00 76.89 242 255 134
29.37 805.00 76.89 239 255 133
31.61 806.00 76.98 237 255 134
33.86 807.00 77.08 233 253 138
36.12 808.00 77.17 233 255 128
38.33 808.00 77.17 233 255 127
40.59 809.00 77.26 228 252 114
42.86 810.00 77.35 227 247 116
45.13 811.00 77.45 221 241 120
47.47 813.00 77.64 214 235 111
49.94 817.00 78.02 213 232 115
52.30 819.00 78.20 208 226 115
54.74 822.00 78.49 204 221 112
57.27 826.00 78.87 197 216 99
60.03 833.00 79.53 194 211 104
62.84 840.00 80.20 189 206 99
66.22 854.00 81.53 190 207 101
70.40 877.00 83.72 187 204 98
-32.53 868.00 80.53 231 255 127
-29.52 850.00 78.86 244 255 142
-26.88 840.00 77.94 243 255 146
-24.34 832.00 77.19 247 255 154
-21.98 829.00 76.92 239 255 146
-19.62 825.00 76.55 238 255 145
-17.25 820.00 76.08 240 255 150
-14.93 816.00 75.71 251 255 160
-12.64 812.00 75.34 248 255 160
-10.39 810.00 75.16 250 255 162
-8.15 808.00 74.97 251 255 165
-5.93 808.00 74.97 253 255 165
-3.71 807.00 74.88 251 255 162
-1.50 805.00 74.70 249 255 152
0.70 803.00 74.51 249 255 155
2.90 802.00 74.42 254 255 176
5.09 801.00 74.32 255 255 182
7.29 802.00 74.42 255 255 180
9.49 802.00 74.42 255 255 173
11.67 801.00 74.32 250 255 157
13.87 801.00 74.32 248 255 148
16.04 800.00 74.23 246 255 132
18.26 801.00 74.32 248 255 148
20.48 802.00 74.41 249 255 152
22.70 803.00 74.50 247 255 145
24.90 803.00 74.50 246 255 144
27.10 803.00 74.50 245 255 139
29.30 803.00 74.50 240 255 126
31.50 803.00 74.50 238 255 124
33.78 805.00 74.68 234 255 129
36.03 806.00 74.77 230 254 122
38.28 807.00 74.86 232 255 120
40.49 807.00 74.86 230 254 116
42.70 807.00 74.86 234 252 132
44.97 808.00 74.95 225 245 125
47.35 811.00 75.23 220 240 120
49.76 814.00 75.50 215 235 115
52.11 816.00 75.69 212 231 114
54.55 819.00 75.96 210 228 117
56.99 822.00 76.24 201 219 106
59.60 827.00 76.70 198 216 103
62.32 833.00 77.25 197 215 104
65.45 844.00 78.27 189 208 93
68.96 859.00 79.66 190 209 99
73.55 886.00 82.16 188 207 97
-35.51 883.00 79.51 226 249 139
-32.15 858.00 77.26 241 255 154
-29.35 845.00 76.09 248 255 162
-26.78 837.00 75.37 246 255 160
-24.28 830.00 74.74 237 255 147
-21.91 826.00 74.38 242 255 150
-19.50 820.00 73.84 239 255 147
-17.15 815.00 73.39 250 255 161
-14.88 813.00 73.21 249 255 161
-12.62 811.00 73.03 253 255 167
-10.36 808.00 72.76 255 255 181
-8.13 806.00 72.58 251 255 181
-5.92 806.00 72.58 250 255 172
-3.71 806.00 72.58 251 255 165
-1.50 805.00 72.49 251 255 162
0.70 803.00 72.31 250 255 162
2.90 802.00 72.22 251 255 165
5.09 801.00 72.13 254 255 179
7.30 802.00 72.22 254 255 169
9.48 801.00 72.13 255 255 171
11.66 800.00 72.04 251 255 156
13.82 798.00 71.86 244 255 132
16.00 798.00 71.86 244 255 137
18.24 800.00 72.04 247 255 144
20.48 802.00 72.22 246 255 143
22.70 803.00 72.31 243 255 143
24.90 803.00 72.31 245 255 143
27.07 802.00 72.22 246 255 141
29.23 801.00 72.12 243 255 138
31.42 801.00 72.12 237 255 131
33.66 802.00 72.21 240 255 140
35.94 804.00 72.39 235 255 135
38.24 806.00 72.57 236 255 132
40.45 806.00 72.57 234 255 130
42.71 807.00 72.65 233 252 128
44.91 807.00 72.65 232 251 126
47.24 809.00 72.83 228 246 125
49.64 812.00 73.10 221 240 123
51.92 813.00 73.19 218 237 120
54.22 814.00 73.27 220 235 128
56.65 817.00 73.54 211 229 116
59.32 823.00 74.08 207 224 107
62.09 830.00 74.71 198 217 92
64.91 837.00 75.33 194 212 92
68.08 848.00 76.32 188 208 88
71.73 864.00 77.76 183 200 91
76.83 896.00 80.63 181 199 93
-34.95 869.00 75.87 238 255 143
-31.93 852.00 74.38 244 255 155
-29.25 842.00 73.51 241 255 155
-26.72 835.00 72.90 242 255 156
-24.26 829.00 72.38 241 255 151
-21.83 823.00 71.86 242 255 150
-19.43 817.00 71.34 249 255 163
-17.11 813.00 70.99 251 255 162
-14.84 811.00 70.81 254 255 168
-12.59 809.00 70.64 251 255 167
-10.34 806.00 70.38 251 255 176
-8.13 806.00 70.38 253 255 178
-5.91 805.00 70.29 253 255 175
-3.71 805.00 70.29 253 255 173
-1.50 804.00 70.20 249 255 161
0.70 803.00 70.12 246 255 157
2.90 803.00 70.12 245 255 146
5.10 803.00 70.12 253 255 165
7.30 802.00 70.03 254 255 172
9.48 801.00 69.94 255 255 174
11.66 800.00 69.85 252 255 151
13.82 798.00 69.68 249 255 138
16.00 798.00 69.68 244 255 127
18.24 800.00 69.85 247 255 146
20.45 801.00 69.94 251 255 158
22.65 801.00 69.94 246 255 160
24.84 801.00 69.94 245 255 154
27.04 801.00 69.93 244 255 145
29.23 801.00 69.93 242 255 145
31.42 801.00 69.93 239 255 142
33.66 802.00 70.02 238 255 141
35.90 803.00 70.10 238 255 139
38.19 805.00 70.28 238 255 139
40.40 805.00 70.27 234 254 134
42.65 806.00 70.36 235 255 126
44.86 806.00 70.36 234 254 123
47.13 807.00 70.44 232 254 116
49.46 809.00 70.62 225 245 125
51.73 810.00 70.70 223 242 127
54.02 811.00 70.79 225 243 130
56.45 814.00 71.04 215 238 106
59.10 820.00 71.57 210 233 98
61.72 825.00 72.00 207 225 104
64.52 832.00 72.61 192 210 90
67.44 840.00 73.30 184 203 86
70.65 851.00 74.26 182 200 87
74.69 871.00 76.00 182 200 87
-38.02 885.00 74.84 226 249 139
-34.47 857.00 72.48 242 255 144
-31.71 846.00 71.55 238 255 129
-29.08 837.00 70.79 243 255 146
-26.66 833.00 70.45 245 255 147
-24.20 827.00 69.94 242 255 145
-21.80 822.00 69.52 241 255 135
-19.38 815.00 68.93 249 255 161
-17.07 811.00 68.59 252 255 164
-14.79 808.00 68.34 249 255 143
-12.56 807.00 68.26 255 255 167
-10.31 804.00 68.00 255 255 182
-8.11 804.00 68.00 255 255 179
-5.90 803.00 67.92 255 255 187
-3.70 803.00 67.92 254 255 176
-1.49 802.00 67.83 254 255 173
0.70 802.00 67.83 250 255 162
2.90 803.00 67.92 245 255 142
5.10 803.00 67.92 255 255 166
7.28 800.00 67.67 255 255 183
9.45 798.00 67.50 253 255 177
11.60 796.00 67.33 252 255 152
13.78 796.00 67.33 250 255 141
15.98 797.00 67.41 247 255 135
18.21 799.00 67.58 250 255 154
20.45 801.00 67.75 254 255 167
22.62 800.00 67.66 250 255 167
24.81 800.00 67.66 245 255 157
27.04 801.00 67.74 246 255 158
29.27 802.00 67.83 246 255 154
31.42 801.00 67.74 240 255 146
33.66 802.00 67.82 238 255 143
35.90 803.00 67.91 232 253 133
38.20 805.00 68.07 231 252 132
40.50 807.00 68.24 234 255 130
42.66 806.00 68.15 236 255 121
44.92 807.00 68.24 237 255 117
47.07 806.00 68.15 234 255 121
49.40 808.00 68.32 231 251 120
51.61 808.00 68.32 223 244 120
53.95 810.00 68.48 227 244 137
56.38 813.00 68.73 222 241 126
58.89 817.00 69.07 213 236 104
61.43 821.00 69.40 204 222 102
64.06 826.00 69.82 193 211 91
66.96 834.00 70.50 195 214 87
69.99 843.00 71.26 188 206 85
73.50 857.00 72.44 186 203 86
78.14 883.00 74.63 186 203 86
-37.42 871.00 71.27 234 255 154
-34.11 848.00 69.39 246 255 156
-31.48 840.00 68.74 248 255 155
-28.90 832.00 68.09 251 255 159
-26.53 829.00 67.84 245 255 148
-24.05 822.00 67.27 243 255 143
-21.70 818.00 66.95 247 255 154
-19.34 813.00 66.54 252 255 164
-17.02 809.00 66.21 251 255 165
-14.77 807.00 66.05 253 255 165
-12.54 806.00 65.97 254 255 174
-10.34 806.00 65.97 254 255 176
-8.13 806.00 65.97 253 255 173
-5.91 805.00 65.89 253 255 173
-3.70 803.00 65.72 255 255 178
-1.49 800.00 65.48 255 255 177
0.70 800.00 65.48 252 255 160
2.90 801.00 65.56 249 255 140
5.10 802.00 65.64 253 255 153
7.28 800.00 65.48 255 255 185
9.46 799.00 65.39 255 255 179
11.62 797.00 65.23 255 255 172
13.80 797.00 65.23 254 255 162
15.99 797.00 65.23 254 255 156
18.19 798.00 65.31 250 255 150
20.40 799.00 65.39 250 255 154
22.56 798.00 65.31 254 255 170
24.78 799.00 65.39 248 255 160
26.97 799.00 65.39 242 255 151
29.20 800.00 65.47 245 255 154
31.39 800.00 65.47 241 255 152
33.62 801.00 65.55 242 255 153
35.90 803.00 65.71 236 255 139
38.20 805.00 65.87 231 255 118
40.45 806.00 65.95 232 255 124
42.61 805.00 65.87 237 255 133
44.81 805.00 65.87 235 255 126
46.95 804.00 65.78 236 255 117
49.22 805.00 65.86 235 255 124
51.48 806.00 65.94 230 250 130
53.82 808.00 66.10 223 244 119
56.17 810.00 66.26 223 243 123
58.53 812.00 66.43 218 238 118
60.98 815.00 66.67 202 224 96
63.67 821.00 67.16 199 222 90
66.40 827.00 67.64 197 217 88
69.49 837.00 68.46 191 209 88
72.73 848.00 69.36 189 206 89
76.73 867.00 70.91 190 206 93
-40.72 891.00 70.47 223 250 132
-36.90 859.00 67.94 241 255 153
-33.95 844.00 66.76 248 255 156
-31.41 838.00 66.28 248 255 155
-28.84 830.00 65.65 244 255 139
-26.47 827.00 65.42 246 255 151
-24.00 820.00 64.86 242 255 149
-21.64 816.00 64.55 254 255 182
-19.29 811.00 64.15 255 255 183
-17.02 809.00 64.00 255 255 182
-14.77 807.00 63.84 255 255 182
-12.54 806.00 63.76 255 255 180
-10.34 806.00 63.76 253 255 165
-8.12 805.00 63.68 252 255 164
-5.90 804.00 63.60 255 255 198
-3.69 802.00 63.45 255 255 206
-1.49 799.00 63.21 255 255 200
0.70 797.00 63.05 253 255 183
2.89 798.00 63.13 251 255 150
5.08 799.00 63.21 255 255 167
7.26 798.00 63.13 255 255 186
9.43 797.00 63.05 255 255 182
11.60 796.00 62.97 255 255 171
13.77 795.00 62.89 255 255 166
15.97 796.00 62.97 253 255 158
18.22 799.00 63.20 250 255 145
20.40 799.00 63.20 254 255 154
22.57 798.00 63.12 253 255 166
24.75 798.00 63.12 248 255 159
26.97 799.00 63.20 244 255 152
29.16 799.00 63.20 243 255 151
31.35 799.00 63.20 244 255 156
33.62 801.00 63.36 241 255 147
35.86 802.00 63.43 240 255 143
38.15 804.00 63.59 238 255 128
40.40 805.00 63.67 238 255 136
42.55 804.00 63.59 240 255 140
44.81 805.00 63.66 244 255 146
46.96 804.00 63.58 242 255 133
49.22 805.00 63.66 237 255 126
51.49 806.00 63.74 235 254 129
53.83 808.00 63.89 229 249 129
56.11 809.00 63.97 223 243 123
58.39 810.00 64.05 220 240 119
60.83 813.00 64.28 206 226 105
63.44 818.00 64.67 196 216 96
66.16 824.00 65.15 195 216 91
69.08 832.00 65.78 196 216 87
72.04 840.00 66.40 197 210 111
75.76 856.00 67.67 193 206 107
80.29 880.00 69.56 191 201 106
-40.08 877.00 66.96 233 255 142
-36.65 853.00 65.13 246 255 151
-33.87 842.00 64.29 248 255 153
-31.34 836.00 63.84 248 255 156
-28.77 828.00 63.23 244 255 149
-26.31 822.00 62.77 245 255 158
-23.88 816.00 62.31 248 255 170
-21.57 813.00 62.09 255 255 184
-19.29 811.00 61.93 255 255 187
-17.03 809.00 61.78 254 255 179
-14.79 808.00 61.71 254 255 177
-12.55 806.00 61.55 251 255 165
-10.31 804.00 61.40 254 255 165
-8.10 803.00 61.33 253 255 165
-5.90 803.00 61.33 255 255 204
-3.69 802.00 61.25 255 255 207
-1.49 800.00 61.10 255 255 207
0.70 798.00 60.94 255 255 201
2.88 797.00 60.87 254 255 173
5.07 797.00 60.87 255 255 175
7.25 797.00 60.87 255 255 185
9.42 796.00 60.79 255 255 179
11.59 795.00 60.71 254 255 167
13.75 794.00 60.64 255 255 169
15.97 796.00 60.79 252 255 147
18.17 797.00 60.87 250 255 141
20.38 798.00 60.94 250 255 148
22.51 796.00 60.79 251 255 153
24.72 797.00 60.86 250 255 152
26.91 797.00 60.86 246 255 146
29.12 798.00 60.94 245 255 147
31.31 798.00 60.94 246 255 156
33.54 799.00 61.01 245 255 158
35.77 800.00 61.09 245 255 156
37.96 800.00 61.08 237 255 141
40.25 802.00 61.24 238 255 146
42.45 802.00 61.23 235 253 142
44.70 803.00 61.31 242 255 157
46.84 802.00 61.23 239 255 136
49.10 803.00 61.30 240 255 135
51.49 806.00 61.53 238 255 135
53.83 808.00 61.68 231 249 138
56.11 809.00 61.76 230 250 130
58.25 808.00 61.68 224 245 121
60.69 811.00 61.90 214 235 110
63.29 816.00 62.28 202 222 101
66.01 822.00 62.74 198 216 95
68.75 828.00 63.19 199 213 110
71.45 833.00 63.57 197 209 113
74.96 847.00 64.64 191 204 97
79.01 866.00 66.09 190 203 96
-39.58 866.00 63.75 238 255 143
-36.43 848.00 62.43 245 255 148
-33.75 839.00 61.77 247 255 148
-31.23 833.00 61.33 242 255 145
-28.70 826.00 60.81 242 255 141
-26.21 819.00 60.30 249 255 171
-23.85 815.00 60.01 251 255 157
-21.57 813.00 59.86 254 255 170
-19.31 812.00 59.79 253 255 175
-17.03 809.00 59.57 255 255 178
-14.75 806.00 59.35 254 255 169
-12.50 803.00 59.13 253 255 166
-10.27 801.00 58.98 254 255 182
-8.07 800.00 58.91 255 255 186
-5.87 799.00 58.83 255 255 202
-3.68 799.00 58.83 255 255 204
-1.49 798.00 58.76 255 255 206
0.70 797.00 58.69 255 255 206
2.88 796.00 58.61 255 255 198
5.07 797.00 58.69 255 255 193
7.24 796.00 58.61 255 255 186
9.40 794.00 58.46 255 255 192
11.56 793.00 58.39 255 255 185
13.73 793.00 58.39 254 255 173
15.95 795.00 58.54 255 255 167
18.17 797.00 58.68 254 255 152
20.36 797.00 58.68 254 255 152
22.48 795.00 58.53 251 255 145
24.69 796.00 58.61 248 255 139
26.91 797.00 58.68 249 255 156
29.16 799.00 58.83 246 255 148
31.31 798.00 58.75 243 255 143
33.54 799.00 58.82 243 255 153
35.73 799.00 58.82 241 255 143
37.92 799.00 58.82 239 255 141
40.21 801.00 58.97 239 255 143
42.45 802.00 59.04 241 255 148
44.70 803.00 59.11 244 255 155
46.84 802.00 59.04 242 255 140
49.10 803.00 59.11 240 255 131
51.43 805.00 59.25 236 255 125
53.76 807.00 59.40 230 250 129
56.04 808.00 59.47 237 255 136
58.18 807.00 59.39 232 252 131
60.54 809.00 59.54 222 243 118
63.06 813.00 59.83 208 231 99
65.69 818.00 60.20 202 217 98
68.34 823.00 60.56 200 214 101
71.02 828.00 60.93 190 209 85
74.35 840.00 61.81 191 209 80
78.19 857.00 63.05 192 210 79
83.17 885.00 65.11 191 209 78
-43.07 889.00 63.01 235 255 140
-39.31 860.00 60.96 243 255 148
-36.26 844.00 59.83 246 255 151
-33.59 835.00 59.19 245 255 150
-31.04 828.00 58.69 249 255 159
-28.53 821.00 58.20 250 255 164
-26.12 816.00 57.85 254 255 173
-23.74 811.00 57.49 249 255 152
-21.46 809.00 57.35 251 255 156
-19.24 809.00 57.35 255 255 177
-16.98 807.00 57.21 255 255 180
-14.74 805.00 57.07 255 255 193
-12.47 801.00 56.79 255 255 198
-10.26 800.00 56.72 255 255 188
-8.05 798.00 56.57 255 255 187
-5.85 797.00 56.50 255 255 200
-3.67 797.00 56.50 255 255 198
-1.49 797.00 56.50 255 255 204
0.70 797.00 56.50 255 255 204
2.88 797.00 56.50 255 255 196
5.06 796.00 56.43 255 255 194
7.23 795.00 56.36 255 255 192
9.39 793.00 56.22 255 255 189
11.56 793.00 56.22 255 255 183
13.75 794.00 56.29 254 255 175
15.95 795.00 56.36 253 255 156
18.15 796.00 56.43 255 255 159
20.31 795.00 56.36 255 255 164
22.46 794.00 56.29 254 255 145
24.69 796.00 56.43 252 255 139
26.87 796.00 56.43 253 255 158
29.09 797.00 56.50 247 255 145
31.27 797.00 56.50 241 255 130
33.50 798.00 56.57 244 255 133
35.73 799.00 56.64 244 255 130
37.97 800.00 56.70 243 255 135
40.16 800.00 56.70 243 255 140
42.45 802.00 56.84 241 255 149
44.65 802.00 56.84 235 255 132
46.90 803.00 56.91 239 255 138
49.10 803.00 56.91 238 255 138
51.43 805.00 57.05 232 254 126
53.70 806.00 57.12 231 252 128
56.04 808.00 57.26 235 253 133
58.18 807.00 57.18 234 250 137
60.47 808.00 57.25 226 243 126
62.83 810.00 57.39 217 239 101
65.45 815.00 57.74 212 230 99
68.01 819.00 58.03 203 220 95
70.94 827.00 58.59 200 216 93
73.99 836.00 59.23 201 216 97
77.65 851.00 60.28 196 214 94
82.04 873.00 61.84 184 204 75
-42.53 878.00 59.83 232 255 131
-39.03 854.00 58.20 245 255 148
-36.05 839.00 57.17 243 255 150
-33.39 830.00 56.56 250 255 157
-30.85 823.00 56.09 252 255 164
-28.46 819.00 55.82 252 255 168
-26.05 814.00 55.48 253 255 173
-23.71 810.00 55.20 255 255 177
-21.43 808.00 55.07 252 255 166
-19.20 807.00 55.00 253 255 173
-16.96 806.00 54.93 255 255 193
-14.72 804.00 54.80 255 255 197
-12.48 802.00 54.66 255 255 194
-10.27 801.00 54.59 255 255 200
-8.07 800.00 54.53 255 255 201
-5.86 798.00 54.39 255 255 203
-3.67 797.00 54.32 255 255 206
-1.48 795.00 54.19 255 255 203
0.70 794.00 54.12 255 255 202
2.88 795.00 54.19 255 255 199
5.05 795.00 54.19 255 255 198
7.23 795.00 54.19 255 255 194
9.39 793.00 54.05 255 255 197
11.58 794.00 54.12 255 255 189
13.79 796.00 54.25 255 255 187
15.99 797.00 54.32 253 255 168
18.17 797.00 54.32 255 255 164
20.31 795.00 54.18 254 255 159
22.46 794.00 54.11 255 255 157
24.66 795.00 54.18 253 255 153
26.87 796.00 54.25 251 255 149
29.09 797.00 54.32 247 255 147
31.28 797.00 54.31 245 255 156
33.46 797.00 54.31 243 255 141
35.64 797.00 54.31 243 255 135
37.92 799.00 54.45 244 255 131
40.11 799.00 54.45 240 255 131
42.35 800.00 54.51 239 255 136
44.60 801.00 54.58 240 255 139
46.91 803.00 54.71 243 255 152
49.10 803.00 54.71 241 255 143
51.43 805.00 54.85 238 255 136
53.70 806.00 54.91 242 255 147
55.98 807.00 54.98 237 254 137
58.18 807.00 54.98 231 247 134
60.47 808.00 55.04 232 249 134
62.76 809.00 55.11 226 244 123
65.29 813.00 55.38 217 234 107
67.76 816.00 55.58 206 223 98
70.77 825.00 56.19 203 219 96
73.73 833.00 56.73 197 213 100
77.20 846.00 57.62 192 205 105
81.01 862.00 58.70 187 200 101
86.27 892.00 60.74 182 195 96
-42.25 872.00 57.03 237 255 139
-38.85 850.00 55.60 245 255 155
-35.96 837.00 54.75 250 255 171
-33.39 830.00 54.29 251 255 163
-30.85 823.00 53.83 253 255 169
-28.46 819.00 53.57 252 255 168
-26.09 815.00 53.31 255 255 178
-23.71 810.00 52.99 254 255 177
-21.41 807.00 52.79 253 255 176
-19.17 806.00 52.73 255 255 192
-16.94 805.00 52.66 255 255 202
-14.70 803.00 52.53 255 255 208
-12.47 801.00 52.40 255 255 204
-10.26 800.00 52.34 255 255 203
-8.07 800.00 52.34 255 255 206
-5.87 799.00 52.27 255 255 214
-3.67 797.00 52.14 255 255 210
-1.48 796.00 52.07 255 255 207
0.70 796.00 52.07 255 255 207
2.88 796.00 52.07 255 255 198
5.06 795.00 52.01 255 255 189
7.23 795.00 52.01 255 255 202
9.40 794.00 51.94 255 255 202
11.58 794.00 51.94 255 255 185
13.77 795.00 52.01 255 255 178
15.93 794.00 51.94 255 255 171
18.13 795.00 52.01 255 255 164
20.28 794.00 51.94 255 255 161
22.49 795.00 52.00 255 255 161
24.66 795.00 52.00 255 255 162
26.88 796.00 52.07 252 255 152
29.02 795.00 52.00 255 255 163
31.20 795.00 52.00 252 255 161
33.42 796.00 52.07 245 255 145
35.64 797.00 52.13 244 255 131
37.87 798.00 52.19 241 255 124
40.06 798.00 52.19 243 255 126
42.35 800.00 52.32 242 255 137
44.54 800.00 52.32 241 255 136
46.85 802.00 52.45 242 255 128
49.11 803.00 52.51 239 255 119
51.43 805.00 52.64 239 255 128
53.70 806.00 52.71 236 254 134
56.05 808.00 52.83 237 254 139
58.26 808.00 52.83 237 254 137
60.62 810.00 52.96 237 252 133
62.84 810.00 52.96 228 246 126
65.21 812.00 53.09 219 237 116
67.68 815.00 53.28 209 228 101
70.51 822.00 53.74 207 227 96
73.47 830.00 54.26 203 221 101
76.74 841.00 54.97 193 213 92
80.45 856.00 55.95 187 207 87
85.02 879.00 57.45 187 202 93
-41.96 866.00 54.27 240 255 147
-38.67 846.00 53.02 250 255 164
-35.88 835.00 52.33 248 255 162
-33.31 828.00 51.89 253 255 167
-30.85 823.00 51.58 251 255 167
-28.46 819.00 51.33 254 255 176
-26.09 815.00 51.08 254 255 176
-23.71 810.00 50.77 255 255 183
-21.41 807.00 50.58 255 255 183
-19.17 806.00 50.52 255 255 201
-16.94 805.00 50.46 255 255 206
-14.68 802.00 50.27 255 255 212
-12.45 800.00 50.14 255 255 212
-10.26 800.00 50.14 255 255 214
-8.07 800.00 50.14 255 255 210
-5.87 799.00 50.08 255 255 213
-3.67 797.00 49.96 255 255 214
-1.48 795.00 49.83 255 255 209
0.70 795.00 49.83 255 255 210
2.88 796.00 49.89 255 255 192
5.06 795.00 49.83 255 255 185
7.23 794.00 49.77 255 255 192
9.39 793.00 49.71 255 255 198
11.56 793.00 49.71 255 255 187
13.75 794.00 49.77 254 255 173
15.91 793.00 49.70 252 255 152
18.08 793.00 49.70 255 255 161
20.23 792.00 49.64 254 255 159
22.46 794.00 49.77 253 255 160
24.63 794.00 49.76 249 255 156
26.88 796.00 49.89 253 255 160
28.98 794.00 49.76 249 255 154
31.16 794.00 49.76 250 255 154
33.33 794.00 49.76 244 255 143
35.55 795.00 49.82 246 255 143
37.83 797.00 49.95 246 255 144
40.01 797.00 49.94 245 255 143
42.30 799.00 50.07 244 255 142
44.54 800.00 50.13 244 255 142
46.73 800.00 50.13 242 255 126
48.92 800.00 50.13 239 255 121
51.31 803.00 50.31 241 255 130
53.57 804.00 50.37 236 255 140
55.91 806.00 50.50 233 253 133
58.19 807.00 50.56 237 255 135
60.47 808.00 50.62 240 255 136
62.68 808.00 50.62 234 252 132
65.05 810.00 50.74 219 237 116
67.52 813.00 50.93 213 229 116
70.26 819.00 51.30 207 225 104
73.12 826.00 51.74 202 221 94
76.20 835.00 52.30 197 214 99
79.80 849.00 53.17 194 211 96
84.05 869.00 54.42 186 202 91
-45.61 891.00 53.40 240 255 151
-41.72 861.00 51.60 241 255 154
-38.49 842.00 50.46 249 255 163
-35.75 832.00 49.86 250 255 162
-33.23 826.00 49.50 252 255 166
-30.78 821.00 49.21 253 255 170
-28.43 818.00 49.03 252 255 169
-26.03 813.00 48.73 252 255 172
-23.68 809.00 48.49 255 255 203
-21.38 806.00 48.31 255 255 211
-19.13 804.00 48.19 255 255 207
-16.90 803.00 48.13 255 255 209
-14.68 802.00 48.07 255 255 213
-12.44 799.00 47.89 255 255 215
-10.24 798.00 47.83 255 255 217
-8.05 798.00 47.83 255 255 217
-5.85 797.00 47.77 255 255 212
-3.66 795.00 47.65 255 255 209
-1.48 795.00 47.65 255 255 210
0.70 796.00 47.71 255 255 209
2.88 797.00 47.77 255 255 198
5.06 795.00 47.65 255 255 197
7.22 793.00 47.53 255 255 208
9.38 792.00 47.47 255 255 203
11.53 791.00 47.41 255 255 189
13.70 791.00 47.41 254 255 175
15.87 791.00 47.41 253 255 155
18.04 791.00 47.41 254 255 154
20.21 791.00 47.41 255 255 170
22.43 793.00 47.53 255 255 165
24.63 794.00 47.59 255 255 160
26.84 795.00 47.65 254 255 157
28.95 793.00 47.53 253 255 155
31.12 793.00 47.53 253 255 155
33.34 794.00 47.59 248 255 148
35.60 796.00 47.70 246 255 144
37.83 797.00 47.76 246 255 144
40.11 799.00 47.88 242 255 140
42.25 798.00 47.82 246 255 143
44.49 799.00 47.88 240 255 135
46.68 799.00 47.88 244 255 141
48.93 800.00 47.94 243 255 138
51.24 802.00 48.05 242 255 144
53.57 804.00 48.17 240 255 158
55.98 807.00 48.35 233 252 135
58.26 808.00 48.41 236 254 134
60.40 807.00 48.35 234 250 129
62.61 807.00 48.35 231 249 118
64.90 808.00 48.40 232 249 124
67.44 812.00 48.64 221 238 111
70.00 816.00 48.88 216 232 109
72.77 822.00 49.24 206 221 114
75.74 830.00 49.71 202 216 111
79.33 844.00 50.55 195 208 108
83.38 862.00 51.62 192 205 105
89.31 898.00 53.78 185 203 83
-45.20 883.00 50.50 243 255 156
-41.47 856.00 48.95 247 255 158
-38.40 840.00 48.04 250 255 164
-35.67 830.00 47.47 252 255 164
-33.11 823.00 47.07 254 255 168
-30.71 819.00 46.84 254 255 171
-28.36 816.00 46.67 254 255 176
-25.96 811.00 46.39 255 255 187
-23.62 807.00 46.16 255 255 211
-21.33 804.00 45.99 255 255 213
-19.08 802.00 45.87 255 255 213
-16.88 802.00 45.88 255 255 213
-14.67 801.00 45.82 255 255 216
-12.44 799.00 45.70 255 255 216
-10.24 798.00 45.65 255 255 222
-8.05 798.00 45.65 255 255 230
-5.85 797.00 45.59 255 255 224
-3.66 795.00 45.48 255 255 221
-1.48 793.00 45.36 255 255 219
0.70 794.00 45.42 255 255 220
2.88 796.00 45.53 255 255 213
5.05 794.00 45.42 255 255 206
7.21 792.00 45.30 255 255 210
9.35 790.00 45.19 255 255 213
11.51 789.00 45.13 255 255 200
13.70 791.00 45.25 254 255 190
15.89 792.00 45.30 255 255 173
18.06 792.00 45.30 254 255 167
20.21 791.00 45.24 254 255 165
22.43 793.00 45.36 253 255 158
24.63 794.00 45.42 253 255 153
26.84 795.00 45.47 252 255 157
28.99 794.00 45.41 252 255 159
31.16 794.00 45.41 250 255 157
33.34 794.00 45.41 252 255 155
35.56 795.00 45.47 245 255 145
37.78 796.00 45.52 241 255 139
40.06 798.00 45.64 246 255 144
42.20 797.00 45.58 247 255 145
44.38 797.00 45.58 238 255 136
46.56 797.00 45.58 241 255 145
48.87 799.00 45.69 239 255 144
51.12 800.00 45.74 240 255 140
53.51 803.00 45.91 239 255 144
55.77 804.00 45.97 235 255 134
58.05 805.00 46.03 240 254 141
60.25 805.00 46.02 237 249 144
62.53 806.00 46.08 236 249 142
64.90 808.00 46.19 225 244 109
67.44 812.00 46.42 223 243 105
69.92 815.00 46.59 214 233 99
72.50 819.00 46.81 207 223 112
75.38 826.00 47.21 193 208 101
78.77 838.00 47.90 194 209 100
82.70 855.00 48.86 193 207 94
88.32 888.00 50.75 193 207 94
-44.84 876.00 47.70 246 255 160
-41.28 852.00 46.39 250 255 151
-38.31 838.00 45.63 251 255 163
-35.58 828.00 45.09 252 255 166
-33.11 823.00 44.82 253 255 170
-30.67 818.00 44.55 253 255 170
-28.29 814.00 44.33 255 255 182
-25.90 809.00 44.06 255 255 188
-23.59 806.00 43.89 255 255 213
-21.33 804.00 43.79 255 255 217
-19.11 803.00 43.73 255 255 220
-16.88 802.00 43.68 255 255 221
-14.65 800.00 43.57 255 255 225
-12.42 798.00 43.46 255 255 226
-10.24 798.00 43.46 255 255 228
-8.04 797.00 43.41 255 255 229
-5.85 797.00 43.41 255 255 231
-3.66 794.00 43.24 255 255 232
-1.48 793.00 43.19 255 255 231
0.70 793.00 43.19 255 255 225
2.88 795.00 43.30 255 255 219
5.05 794.00 43.24 255 255 216
7.21 792.00 43.14 255 255 216
9.35 790.00 43.03 255 255 217
11.51 789.00 42.97 255 255 208
13.69 790.00 43.03 255 255 197
15.87 791.00 43.08 255 255 177
18.04 791.00 43.08 254 255 169
20.21 791.00 43.08 255 255 167
22.43 793.00 43.19 255 255 157
24.60 793.00 43.19 254 255 152
26.81 794.00 43.24 254 255 163
28.99 794.00 43.24 253 255 159
31.20 795.00 43.29 255 255 161
33.34 794.00 43.24 252 255 157
35.51 794.00 43.24 248 255 148
37.78 796.00 43.34 247 255 145
40.06 798.00 43.45 246 255 144
42.25 798.00 43.45 245 255 143
44.38 797.00 43.39 245 255 143
46.62 798.00 43.45 246 255 150
48.87 799.00 43.50 245 255 150
51.12 800.00 43.55 238 255 135
53.51 803.00 43.72 238 255 132
55.78 804.00 43.77 236 255 130
58.05 805.00 43.82 238 253 134
60.18 804.00 43.77 243 255 149
62.53 806.00 43.87 245 255 149
64.98 809.00 44.03 232 249 114
67.44 812.00 44.19 226 242 111
69.83 814.00 44.30 218 233 108
72.33 817.00 44.46 213 228 109
75.11 823.00 44.79 200 216 103
78.49 835.00 45.44 201 217 104
82.32 851.00 46.31 197 215 94
87.43 879.00 47.83 194 212 91
-44.54 870.00 44.99 251 255 163
-41.19 850.00 43.96 251 255 154
-38.26 837.00 43.28 252 255 164
-35.58 828.00 42.82 253 255 175
-33.11 823.00 42.56 254 255 177
-30.67 818.00 42.30 255 255 177
-28.26 813.00 42.05 255 255 189
-25.87 808.00 41.79 255 255 200
-23.57 805.00 41.63 255 255 219
-21.33 804.00 41.58 255 255 225
-19.11 803.00 41.53 255 255 226
-16.86 801.00 41.43 255 255 226
-14.63 799.00 41.33 255 255 228
-12.41 797.00 41.22 255 255 228
-10.22 797.00 41.22 255 255 231
-8.03 796.00 41.17 255 255 232
-5.84 795.00 41.12 255 255 235
-3.66 794.00 41.07 255 255 235
-1.48 794.00 41.07 255 255 232
0.70 794.00 41.07 255 255 234
2.87 794.00 41.07 255 255 225
5.04 793.00 41.02 255 255 224
7.21 792.00 40.97 255 255 220
9.36 790.00 40.86 255 255 225
11.51 789.00 40.81 255 255 218
13.69 790.00 40.86 255 255 201
15.87 791.00 40.91 255 255 177
18.06 792.00 40.96 255 255 171
20.21 791.00 40.91 255 255 171
22.40 792.00 40.96 253 255 160
24.54 791.00 40.91 250 255 147
26.78 793.00 41.01 253 255 155
28.95 793.00 41.01 254 255 157
31.12 793.00 41.01 253 255 158
33.30 793.00 41.01 250 255 153
35.47 793.00 41.01 249 255 149
37.78 796.00 41.16 247 255 145
39.97 796.00 41.16 247 255 145
42.20 797.00 41.21 248 255 146
44.38 797.00 41.21 245 255 143
46.68 799.00 41.31 244 255 139
48.87 799.00 41.31 250 255 150
51.06 799.00 41.31 240 255 137
53.31 800.00 41.36 240 255 133
55.57 801.00 41.41 244 255 137
57.83 802.00 41.46 239 255 123
60.03 802.00 41.46 237 255 124
62.46 805.00 41.61 235 252 117
64.90 808.00 41.77 231 247 116
67.44 812.00 41.97 224 238 115
69.84 814.00 42.07 221 234 117
72.33 817.00 42.23 216 228 125
75.02 822.00 42.48 202 216 111
78.30 833.00 43.05 193 209 96
81.93 847.00 43.77 189 208 84
86.83 873.00 45.11 183 202 78
-48.38 897.00 43.93 244 255 163
-44.33 866.00 42.41 254 255 166
-41.09 848.00 41.53 252 255 164
-38.17 835.00 40.89 252 255 166
-35.54 827.00 40.50 253 255 175
-32.99 820.00 40.16 253 255 176
-30.60 816.00 39.97 254 255 182
-28.19 811.00 39.72 255 255 207
-25.84 807.00 39.53 255 255 213
-23.57 805.00 39.43 255 255 222
-21.36 805.00 39.43 255 255 230
-19.13 804.00 39.38 255 255 232
-16.86 801.00 39.23 255 255 232
-14.61 798.00 39.09 255 255 235
-12.38 795.00 38.94 255 255 238
-10.21 796.00 38.99 255 255 238
-8.01 794.00 38.89 255 255 238
-5.84 795.00 38.94 255 255 238
-3.66 794.00 38.89 255 255 238
-1.48 794.00 38.89 255 255 235
0.70 794.00 38.89 255 255 235
2.87 794.00 38.89 255 255 234
5.04 793.00 38.84 255 255 231
7.20 791.00 38.75 255 255 230
9.37 791.00 38.75 255 255 224
11.51 789.00 38.65 255 255 213
13.67 789.00 38.65 255 255 204
15.83 789.00 38.65 255 255 176
18.04 791.00 38.74 254 255 172
20.23 792.00 38.79 252 255 170
22.43 793.00 38.84 254 255 165
24.57 792.00 38.79 255 255 175
26.75 792.00 38.79 251 255 149
28.92 792.00 38.79 253 255 151
31.09 792.00 38.79 252 255 152
33.30 793.00 38.84 252 255 152
35.52 794.00 38.89 254 255 156
37.79 796.00 38.98 251 255 151
39.97 796.00 38.98 244 255 142
42.25 798.00 39.08 246 255 143
44.49 799.00 39.13 244 255 141
46.80 801.00 39.22 242 255 137
48.93 800.00 39.17 242 255 140
51.12 800.00 39.17 243 255 136
53.31 800.00 39.17 245 255 132
55.57 801.00 39.22 242 255 131
57.84 802.00 39.27 241 255 131
60.11 803.00 39.31 237 252 133
62.46 805.00 39.41 240 253 134
64.90 808.00 39.55 233 247 124
67.36 811.00 39.70 225 239 118
69.67 812.00 39.75 216 228 123
72.07 814.00 39.84 213 225 122
74.75 819.00 40.09 198 214 103
78.02 830.00 40.62 195 211 98
81.65 844.00 41.31 187 203 90
86.34 868.00 42.48 186 203 88
-48.06 891.00 41.19 244 255 165
-44.18 863.00 39.90 254 255 166
-40.99 846.00 39.11 250 255 164
-38.17 835.00 38.61 250 255 164
-35.50 826.00 38.19 254 255 176
-32.91 818.00 37.82 255 255 178
-30.52 814.00 37.64 255 255 195
-28.15 810.00 37.45 255 255 210
-25.84 807.00 37.32 255 255 214
-23.54 804.00 37.18 255 255 223
-21.31 803.00 37.13 255 255 226
-19.11 803.00 37.13 255 255 231
-16.84 800.00 36.99 255 255 233
-14.61 798.00 36.90 255 255 238
-12.38 795.00 36.76 255 255 240
-10.20 795.00 36.76 255 255 240
-8.00 793.00 36.67 255 255 240
-5.83 794.00 36.72 255 255 238
-3.66 795.00 36.76 255 255 237
-1.48 795.00 36.76 255 255 237
0.70 794.00 36.72 255 255 237
2.87 793.00 36.67 255 255 237
5.04 792.00 36.63 255 255 235
7.20 791.00 36.58 255 255 230
9.34 789.00 36.49 255 255 225
11.49 788.00 36.44 255 255 214
13.63 787.00 36.39 255 255 202
15.81 788.00 36.44 253 255 175
18.04 791.00 36.58 254 255 175
20.23 792.00 36.62 255 255 176
22.43 793.00 36.67 255 255 175
24.61 793.00 36.67 255 255 177
26.75 792.00 36.62 254 255 160
28.92 792.00 36.62 253 255 156
31.09 792.00 36.62 252 255 148
33.30 793.00 36.67 254 255 152
35.52 794.00 36.71 255 255 151
37.74 795.00 36.76 252 255 148
39.92 795.00 36.75 250 255 140
42.20 797.00 36.85 250 255 143
44.44 798.00 36.89 253 255 146
46.74 800.00 36.98 245 255 138
48.87 799.00 36.94 248 255 140
51.06 799.00 36.93 245 255 137
53.25 799.00 36.93 243 255 125
55.50 800.00 36.98 244 255 131
57.84 802.00 37.07 242 255 135
60.11 803.00 37.11 240 255 133
62.46 805.00 37.20 240 255 132
64.82 807.00 37.30 231 247 114
67.28 810.00 37.43 231 249 110
69.58 811.00 37.48 222 237 118
72.07 814.00 37.61 219 233 120
74.66 818.00 37.80 207 221 107
77.84 828.00 38.26 205 220 113
81.36 841.00 38.86 195 209 104
85.94 864.00 39.92 190 204 99
-47.95 889.00 38.66 247 255 164
-44.08 861.00 37.45 253 255 165
-40.95 845.00 36.75 252 255 161
-38.13 834.00 36.27 250 255 159
-35.41 824.00 35.84 254 255 181
-32.87 817.00 35.54 255 255 189
-30.49 813.00 35.36 255 255 199
-28.12 809.00 35.19 255 255 217
-25.87 808.00 35.15 255 255 222
-23.60 806.00 35.06 255 255 222
-21.33 804.00 34.97 255 255 227
-19.11 803.00 34.93 255 255 231
-16.84 800.00 34.80 255 255 233
-14.61 798.00 34.71 255 255 238
-12.38 795.00 34.58 255 255 240
-10.20 795.00 34.58 255 255 240
-8.02 795.00 34.59 255 255 240
-5.84 795.00 34.59 255 255 240
-3.67 796.00 34.63 255 255 240
-1.48 795.00 34.59 255 255 240
0.70 794.00 34.54 255 255 240
2.87 793.00 34.50 255 255 238
5.03 791.00 34.41 255 255 237
7.19 790.00 34.37 255 255 234
9.33 788.00 34.28 255 255 234
11.48 787.00 34.24 255 255 217
13.64 787.00 34.24 255 255 214
15.83 789.00 34.32 255 255 207
18.04 791.00 34.41 255 255 193
20.26 793.00 34.50 254 255 176
22.43 793.00 34.50 254 255 173
24.64 794.00 34.54 253 255 168
26.75 792.00 34.45 255 255 165
28.92 792.00 34.45 251 255 157
31.09 792.00 34.45 252 255 152
33.34 794.00 34.54 255 255 151
35.61 796.00 34.62 255 255 153
37.74 795.00 34.58 253 255 149
39.92 795.00 34.58 252 255 148
42.15 796.00 34.62 251 255 144
44.33 796.00 34.62 249 255 145
46.63 798.00 34.70 249 255 145
48.87 799.00 34.75 245 255 141
51.12 800.00 34.79 248 255 148
53.31 800.00 34.79 243 255 138
55.57 801.00 34.83 242 255 137
57.91 803.00 34.92 240 255 135
60.18 804.00 34.96 239 255 134
62.46 805.00 35.00 238 254 131
64.83 807.00 35.09 233 248 123
67.20 809.00 35.17 228 245 108
69.58 811.00 35.26 225 238 119
71.98 813.00 35.34 214 231 106
74.57 817.00 35.51 213 228 111
77.56 825.00 35.86 207 220 113
81.07 838.00 36.42 192 208 95
85.35 858.00 37.29 184 201 86
91.48 895.00 38.90 181 198 83
-47.90 888.00 36.19 244 255 147
-43.98 859.00 35.01 255 255 175
-40.90 844.00 34.40 253 255 173
-38.04 832.00 33.91 254 255 181
-35.37 823.00 33.54 255 255 192
-32.88 817.00 33.30 255 255 189
-30.49 813.00 33.14 255 255 201
-28.15 810.00 33.01 255 255 217
-25.87 808.00 32.93 255 255 217
-23.60 806.00 32.85 255 255 223
-21.31 803.00 32.73 255 255 225
-19.08 802.00 32.69 255 255 229
-16.86 801.00 32.65 255 255 233
-14.65 800.00 32.61 255 255 238
-12.43 798.00 32.53 255 255 240
-10.21 796.00 32.45 255 255 240
-8.01 794.00 32.37 255 255 240
-5.83 794.00 32.37 255 255 240
-3.66 795.00 32.41 255 255 240
-1.48 795.00 32.41 255 255 240
0.70 794.00 32.37 255 255 240
2.87 793.00 32.33 255 255 240
5.03 791.00 32.24 255 255 238
7.19 790.00 32.20 255 255 234
9.33 788.00 32.12 255 255 230
11.49 788.00 32.12 255 255 223
13.65 788.00 32.12 255 255 213
15.85 790.00 32.20 255 255 207
18.02 790.00 32.20 255 255 196
20.21 791.00 32.24 255 255 186
22.38 791.00 32.24 254 255 172
24.58 792.00 32.28 254 255 170
26.75 792.00 32.28 255 255 164
28.88 791.00 32.24 255 255 163
31.09 792.00 32.28 254 255 159
33.34 794.00 32.36 252 255 155
35.56 795.00 32.40 253 255 153
37.74 795.00 32.40 253 255 149
39.92 795.00 32.40 253 255 149
42.04 794.00 32.36 254 255 154
44.22 794.00 32.36 255 255 159
46.57 797.00 32.48 249 255 153
48.87 799.00 32.56 247 255 147
51.19 801.00 32.64 242 255 138
53.38 801.00 32.64 247 255 143
55.64 802.00 32.68 244 255 139
57.91 803.00 32.72 242 255 135
60.11 803.00 32.71 243 255 138
62.39 804.00 32.75 244 255 135
64.67 805.00 32.79 236 250 129
67.12 808.00 32.91 231 244 125
69.59 811.00 33.04 221 238 101
72.07 814.00 33.16 217 233 100
74.66 818.00 33.32 218 234 113
77.56 825.00 33.60 213 228 109
80.97 837.00 34.09 200 214 100
84.95 854.00 34.78 189 206 91
90.66 887.00 36.12 189 206 91
-47.79 886.00 33.68 251 255 166
-43.83 856.00 32.54 254 255 173
-40.71 840.00 31.93 254 255 174
-37.90 829.00 31.51 254 255 182
-35.33 822.00 31.25 255 255 188
-32.88 817.00 31.06 255 255 195
-30.45 812.00 30.87 255 255 201
-28.15 810.00 30.79 255 255 209
-25.90 809.00 30.76 255 255 213
-23.66 808.00 30.72 255 255 221
-21.36 805.00 30.61 255 255 224
-19.11 803.00 30.53 255 255 231
-16.89 802.00 30.49 255 255 235
-14.67 801.00 30.46 255 255 240
-12.44 799.00 30.38 255 255 240
-10.21 796.00 30.27 255 255 240
-8.01 794.00 30.19 255 255 241
-5.83 793.00 30.15 255 255 241
-3.66 794.00 30.19 255 255 241
-1.48 795.00 30.23 255 255 243
0.70 795.00 30.23 255 255 241
2.88 795.00 30.23 255 255 240
5.04 793.00 30.15 255 255 238
7.20 791.00 30.08 255 255 235
9.34 789.00 30.00 255 255 232
11.49 788.00 29.96 255 255 227
13.67 789.00 30.00 255 255 221
15.83 789.00 30.00 255 255 214
18.02 790.00 30.04 255 255 207
20.21 791.00 30.07 255 255 191
22.38 791.00 30.07 255 255 176
24.58 792.00 30.11 254 255 173
26.68 790.00 30.03 255 255 168
28.88 791.00 30.07 255 255 168
31.09 792.00 30.11 255 255 165
33.30 793.00 30.15 255 255 163
35.52 794.00 30.18 255 255 159
37.74 795.00 30.22 254 255 154
39.97 796.00 30.26 253 255 149
42.10 795.00 30.22 252 255 139
44.28 795.00 30.22 255 255 155
46.63 798.00 30.33 250 255 151
48.94 800.00 30.41 243 255 141
51.19 801.00 30.44 246 255 146
53.32 800.00 30.40 244 255 142
55.58 801.00 30.44 248 255 144
57.84 802.00 30.48 243 255 139
60.11 803.00 30.52 244 255 137
62.39 804.00 30.55 241 255 132
64.67 805.00 30.59 233 248 121
67.04 807.00 30.66 233 248 121
69.42 809.00 30.74 226 240 119
72.07 814.00 30.93 225 238 121
74.75 819.00 31.12 219 233 119
77.56 825.00 31.34 212 227 110
80.78 835.00 31.72 204 218 104
84.66 851.00 32.33 194 211 96
90.25 883.00 33.54 194 211 96
-47.74 885.00 31.22 251 255 173
-43.73 854.00 30.12 255 255 177
-40.61 838.00 29.56 254 255 176
-37.86 828.00 29.21 255 255 195
-35.29 821.00 28.96 255 255 195
-32.88 817.00 28.82 255 255 196
-30.53 814.00 28.72 255 255 204
-28.19 811.00 28.61 255 255 209
-25.90 809.00 28.54 255 255 212
-23.60 806.00 28.43 255 255 218
-21.34 804.00 28.36 255 255 224
-19.08 802.00 28.29 255 255 231
-16.89 802.00 28.29 255 255 237
-14.67 801.00 28.26 255 255 240
-12.46 800.00 28.22 255 255 241
-10.24 798.00 28.15 255 255 241
-8.03 796.00 28.08 255 255 241
-5.83 794.00 28.01 255 255 241
-3.66 794.00 28.01 255 255 241
-1.48 795.00 28.05 255 255 241
0.70 795.00 28.05 255 255 240
2.87 794.00 28.01 255 255 240
5.04 793.00 27.98 255 255 238
7.20 791.00 27.91 255 255 234
9.37 791.00 27.91 255 255 232
11.51 789.00 27.84 255 255 228
13.67 789.00 27.84 255 255 222
15.83 789.00 27.84 255 255 218
18.04 791.00 27.91 255 255 208
20.18 790.00 27.87 255 255 191
22.35 790.00 27.87 255 255 168
24.55 791.00 27.91 254 255 165
26.68 790.00 27.87 255 255 172
28.88 791.00 27.90 255 255 168
31.05 791.00 27.90 255 255 164
33.22 791.00 27.90 255 255 165
35.47 793.00 27.97 255 255 155
37.74 795.00 28.04 255 255 156
40.02 797.00 28.11 250 255 146
42.20 797.00 28.11 250 255 134
44.33 796.00 28.08 245 255 132
46.63 798.00 28.15 251 255 154
48.88 799.00 28.18 251 255 152
51.13 800.00 28.21 246 255 149
53.25 799.00 28.18 247 255 148
55.51 800.00 28.21 246 255 149
57.77 801.00 28.25 247 255 145
60.11 803.00 28.32 241 254 135
62.39 804.00 28.35 242 255 135
64.67 805.00 28.38 239 255 124
67.04 807.00 28.45 235 250 125
69.42 809.00 28.52 229 241 128
72.16 815.00 28.73 226 240 126
74.85 820.00 28.91 218 232 121
77.65 826.00 29.12 208 225 110
80.78 835.00 29.43 202 219 104
84.66 851.00 30.00 191 209 88
90.15 882.00 31.09 191 209 88
-47.63 883.00 28.73 249 255 171
-43.67 853.00 27.75 255 255 180
-40.51 836.00 27.20 255 255 180
-37.77 826.00 26.87 255 255 192
-35.25 820.00 26.68 255 255 198
-32.84 816.00 26.55 255 255 198
-30.49 813.00 26.45 255 255 204
-28.16 810.00 26.35 255 255 210
