ply
format ascii 1.0
comment generated by: python
element vertex 2403
property float x
property float y
property float z
end_header
15.37 674.00 33.01
17.68 692.00 33.89
20.34 719.00 35.22
23.40 754.00 36.93
26.31 779.00 38.15
28.15 771.00 37.76
29.04 740.00 36.24
30.32 722.00 35.36
32.29 722.00 35.36
34.61 729.00 35.70
37.15 740.00 36.24
40.29 761.00 37.27
-139.43 722.00 33.28
-139.75 734.00 33.83
-143.77 766.00 35.31
-143.35 775.00 35.73
-135.78 745.00 34.35
-125.85 701.00 32.32
-118.46 670.00 30.90
-113.51 652.00 30.07
-109.51 639.00 29.47
-106.42 631.00 29.10
-103.37 623.00 28.74
-100.86 618.00 28.51
-98.54 614.00 28.33
-96.23 610.00 28.14
-93.95 606.00 27.96
-91.69 602.00 27.78
-89.75 600.00 27.69
-87.68 597.00 27.55
-85.62 594.00 27.42
-83.57 591.00 27.28
-82.10 592.00 27.33
-80.35 591.00 27.28
-78.74 591.00 27.28
-76.86 589.00 27.19
-75.26 589.00 27.20
-73.65 589.00 27.20
-72.41 592.00 27.34
-71.03 594.00 27.43
-69.18 592.00 27.34
-67.22 589.00 27.20
-65.61 589.00 27.21
-64.43 593.00 27.39
-63.34 598.00 27.62
-62.02 601.00 27.76
-60.58 603.00 27.86
-53.53 598.00 27.63
-51.64 595.00 27.50
-50.09 596.00 27.54
-48.54 597.00 27.59
-45.43 599.00 27.68
-43.72 598.00 27.64
-42.01 597.00 27.59
-40.51 599.00 27.69
-35.89 604.00 27.92
-33.89 598.00 27.65
-32.15 596.00 27.55
-30.36 593.00 27.42
-28.73 593.00 27.42
-26.97 590.00 27.28
-25.36 590.00 27.28
-23.74 590.00 27.28
-22.20 592.00 27.37
-20.54 591.00 27.33
-18.89 590.00 27.28
-17.27 590.00 27.28
-15.68 591.00 27.33
-14.11 593.00 27.42
-12.55 596.00 27.56
-10.95 598.00 27.65
-9.33 599.00 27.70
-7.71 601.00 27.79
-6.11 606.00 28.02
-4.50 612.00 28.30
-2.85 618.00 28.58
-1.16 623.00 28.81
0.55 628.00 29.04
2.29 632.00 29.23
4.04 636.00 29.41
5.82 640.00 29.60
7.63 644.00 29.78
9.45 648.00 29.97
11.33 654.00 30.24
13.30 663.00 30.66
15.44 677.00 31.31
17.76 695.00 32.14
20.51 725.00 33.52
23.61 761.00 35.19
26.58 787.00 36.39
28.73 787.00 36.39
29.79 759.00 35.09
31.03 739.00 34.17
33.01 738.00 34.12
35.41 746.00 34.49
-140.52 738.00 32.00
-143.02 762.00 33.05
-143.54 776.00 33.65
-137.05 752.00 32.62
-126.93 707.00 30.67
-118.82 672.00 29.15
-113.68 653.00 28.33
-109.68 640.00 27.77
-106.59 632.00 27.42
-103.87 626.00 27.16
-101.19 620.00 26.91
-98.70 615.00 26.69
-96.24 610.00 26.48
-94.11 607.00 26.35
-91.85 603.00 26.18
-89.75 600.00 26.05
-87.68 597.00 25.92
-85.76 595.00 25.83
-83.57 591.00 25.66
-81.82 590.00 25.62
-80.08 589.00 25.58
-78.61 590.00 25.62
-77.00 590.00 25.63
-75.51 591.00 25.67
-73.90 591.00 25.67
-72.41 592.00 25.72
-70.91 593.00 25.76
-69.18 592.00 25.72
-67.45 591.00 25.68
-65.94 592.00 25.72
-64.87 597.00 25.94
-63.77 602.00 26.16
-62.33 604.00 26.25
-32.47 602.00 26.18
-30.56 597.00 25.97
-28.83 595.00 25.88
-27.11 593.00 25.79
-25.44 592.00 25.75
-23.82 592.00 25.75
-22.16 591.00 25.71
-20.51 590.00 25.66
-18.89 590.00 25.66
-17.30 591.00 25.71
-15.68 591.00 25.71
-14.11 593.00 25.80
-12.53 595.00 25.88
-10.93 597.00 25.97
-9.33 599.00 26.06
-7.71 601.00 26.15
-6.11 606.00 26.36
-4.50 613.00 26.67
-2.85 619.00 26.93
-1.17 625.00 27.19
0.55 630.00 27.41
2.30 635.00 27.62
4.05 637.00 27.71
5.83 640.00 27.84
7.62 643.00 27.97
9.47 649.00 28.23
11.38 657.00 28.58
13.40 668.00 29.06
15.55 682.00 29.67
17.94 702.00 30.54
20.71 732.00 31.84
23.89 770.00 33.49
26.81 794.00 34.54
30.73 783.00 34.06
32.54 775.00 33.71
34.76 777.00 33.80
37.41 788.00 34.27
-144.46 781.00 31.74
-138.33 759.00 30.85
-127.83 712.00 28.94
-119.53 676.00 27.48
-114.03 655.00 26.63
-110.20 643.00 26.14
-107.10 635.00 25.82
-104.37 629.00 25.58
-101.68 623.00 25.33
-99.02 617.00 25.09
-96.55 612.00 24.89
-94.27 608.00 24.73
-92.00 604.00 24.57
-89.91 601.00 24.45
-87.83 598.00 24.33
-85.91 596.00 24.25
-83.72 592.00 24.09
-81.83 590.00 24.01
-79.81 587.00 23.89
-78.34 588.00 23.93
-76.87 589.00 23.97
-75.39 590.00 24.01
-73.78 590.00 24.01
-72.17 590.00 24.02
-70.68 591.00 24.06
-69.18 592.00 24.10
-67.56 592.00 24.10
-66.28 595.00 24.23
-65.30 601.00 24.47
-64.19 606.00 24.68
-28.83 595.00 24.25
-27.11 593.00 24.17
-25.44 592.00 24.13
-23.78 591.00 24.09
-22.12 590.00 24.05
-20.54 591.00 24.09
-18.92 591.00 24.09
-17.36 593.00 24.17
-15.74 593.00 24.17
-14.13 594.00 24.21
-12.57 597.00 24.33
-10.97 599.00 24.42
-9.36 601.00 24.50
-7.74 603.00 24.58
-6.13 608.00 24.78
-4.51 614.00 25.03
-2.86 621.00 25.31
-1.17 627.00 25.56
0.55 632.00 25.76
2.30 636.00 25.93
4.06 638.00 26.01
5.83 641.00 26.13
7.63 644.00 26.25
9.48 650.00 26.50
11.42 659.00 26.86
13.47 671.00 27.35
15.67 687.00 28.00
18.11 709.00 28.90
20.96 741.00 30.20
24.08 776.00 31.63
26.92 797.00 32.48
29.14 798.00 32.52
30.62 780.00 31.79
33.09 788.00 32.12
-139.25 764.00 28.96
-120.06 679.00 25.74
-114.38 657.00 24.91
-110.54 645.00 24.46
-107.44 637.00 24.16
-105.04 633.00 24.01
-102.34 627.00 23.78
-99.67 621.00 23.56
-97.19 616.00 23.37
-94.89 612.00 23.22
-92.61 608.00 23.07
-90.36 604.00 22.92
-88.27 601.00 22.81
-86.20 598.00 22.69
-84.00 594.00 22.54
-81.83 590.00 22.39
-79.95 588.00 22.32
-78.34 588.00 22.32
-77.00 590.00 22.40
-75.52 591.00 22.44
-73.90 591.00 22.44
-72.17 590.00 22.40
-70.68 591.00 22.44
-69.06 591.00 22.44
-67.56 592.00 22.48
-66.39 596.00 22.63
-65.31 601.00 22.83
-51.73 596.00 22.64
-50.01 595.00 22.61
-48.38 595.00 22.61
-46.91 597.00 22.69
-42.01 597.00 22.69
-40.38 597.00 22.69
-28.79 594.00 22.58
-27.11 593.00 22.54
-25.40 591.00 22.47
-23.74 590.00 22.43
-22.09 589.00 22.39
-20.47 589.00 22.39
-18.92 591.00 22.47
-17.33 592.00 22.51
-15.74 593.00 22.55
-14.11 593.00 22.55
-12.57 597.00 22.70
-10.99 600.00 22.81
-9.37 602.00 22.89
-7.75 604.00 22.97
-6.15 610.00 23.19
-4.53 617.00 23.46
-2.88 625.00 23.76
-1.17 629.00 23.92
0.55 632.00 24.03
2.30 636.00 24.18
4.07 640.00 24.33
5.86 644.00 24.49
7.66 647.00 24.60
9.52 653.00 24.83
11.49 663.00 25.21
13.57 676.00 25.70
15.78 692.00 26.31
18.29 716.00 27.22
21.22 750.00 28.51
24.33 784.00 29.81
27.02 800.00 30.41
29.03 795.00 30.22
30.54 778.00 29.58
33.30 793.00 30.15
-121.30 686.00 24.13
-115.08 661.00 23.26
-111.06 648.00 22.80
-108.11 641.00 22.56
-105.70 637.00 22.42
-102.99 631.00 22.21
-100.15 624.00 21.96
-97.35 617.00 21.72
-95.04 613.00 21.58
-92.61 608.00 21.40
-90.51 605.00 21.30
-88.27 601.00 21.16
-86.20 598.00 21.06
-84.15 595.00 20.95
-81.97 591.00 20.81
-80.22 590.00 20.78
-78.48 589.00 20.75
-77.00 590.00 20.78
-75.26 589.00 20.75
-73.78 590.00 20.79
-72.05 589.00 20.75
-70.56 590.00 20.79
-68.95 590.00 20.79
-64.66 595.00 20.97
-56.43 594.00 20.94
-54.80 594.00 20.94
-53.09 593.00 20.91
-51.47 593.00 20.91
-49.76 592.00 20.87
-48.14 592.00 20.87
-46.68 594.00 20.94
-45.13 595.00 20.98
-43.57 596.00 21.02
-41.87 595.00 20.98
-40.17 594.00 20.95
-38.48 593.00 20.91
-36.80 592.00 20.88
-35.18 592.00 20.88
-33.55 592.00 20.88
-31.99 593.00 20.92
-30.31 592.00 20.88
-28.64 591.00 20.85
-27.02 591.00 20.85
-25.40 591.00 20.85
-23.78 591.00 20.85
-22.16 591.00 20.85
-20.51 590.00 20.81
-18.92 591.00 20.85
-17.33 592.00 20.88
-15.74 593.00 20.92
-14.13 594.00 20.96
-12.59 598.00 21.10
-10.99 600.00 21.17
-9.39 603.00 21.27
-7.78 606.00 21.38
-6.18 613.00 21.63
-4.56 620.00 21.87
-2.89 627.00 22.12
-1.17 630.00 22.23
0.56 634.00 22.37
2.31 637.00 22.47
4.07 640.00 22.58
5.87 645.00 22.76
7.69 649.00 22.90
9.57 656.00 23.14
11.52 665.00 23.46
13.63 679.00 23.96
15.90 697.00 24.59
18.47 723.00 25.51
21.44 758.00 26.74
24.48 789.00 27.83
28.85 790.00 27.87
30.50 777.00 27.41
33.51 798.00 28.15
-122.89 695.00 22.55
-115.78 665.00 21.58
-111.40 650.00 21.09
-108.11 641.00 20.80
-105.87 638.00 20.71
-103.32 633.00 20.55
-100.79 628.00 20.39
-97.66 619.00 20.10
-95.36 615.00 19.97
-93.22 612.00 19.87
-91.11 609.00 19.78
-88.71 604.00 19.61
-86.20 598.00 19.42
-84.15 595.00 19.33
-81.97 591.00 19.20
-80.36 591.00 19.20
-78.74 591.00 19.20
-77.13 591.00 19.20
-75.39 590.00 19.17
-73.78 590.00 19.17
-72.17 590.00 19.17
-70.56 590.00 19.17
-68.95 590.00 19.17
-52.64 588.00 19.12
-51.03 588.00 19.12
-49.34 587.00 19.09
-47.74 587.00 19.09
-46.21 588.00 19.12
-44.75 590.00 19.19
-43.21 591.00 19.22
-41.52 590.00 19.19
-33.33 588.00 19.13
-31.83 590.00 19.19
-30.16 589.00 19.16
-28.59 590.00 19.19
-26.93 589.00 19.16
-25.32 589.00 19.16
-23.74 590.00 19.20
-22.13 590.00 19.20
-20.51 590.00 19.20
-18.89 590.00 19.20
-17.27 590.00 19.20
-15.71 592.00 19.26
-14.16 595.00 19.36
-12.59 598.00 19.46
-11.01 601.00 19.56
-9.41 604.00 19.65
-7.80 608.00 19.78
-6.20 615.00 20.01
-4.58 623.00 20.27
-2.91 631.00 20.53
-1.18 633.00 20.60
0.56 636.00 20.70
2.31 637.00 20.73
4.07 640.00 20.83
5.87 645.00 20.99
7.71 651.00 21.18
9.61 659.00 21.44
11.57 668.00 21.74
13.71 683.00 22.22
16.04 703.00 22.87
18.73 733.00 23.85
21.76 769.00 25.02
24.67 795.00 25.87
28.85 790.00 25.70
30.85 786.00 25.57
-117.35 674.00 20.03
-111.92 653.00 19.41
-108.45 643.00 19.11
-106.04 639.00 18.99
-103.65 635.00 18.88
-101.28 631.00 18.76
-98.14 622.00 18.49
-95.67 617.00 18.34
-93.22 612.00 18.20
-90.96 608.00 18.08
-88.71 604.00 17.96
-86.20 598.00 17.79
-84.29 596.00 17.73
-82.11 592.00 17.61
-80.49 592.00 17.61
-78.75 591.00 17.58
-77.13 591.00 17.58
-75.39 590.00 17.55
-73.66 589.00 17.53
-72.05 589.00 17.53
-70.44 589.00 17.53
-68.83 589.00 17.53
-36.30 584.00 17.40
-34.82 586.00 17.46
-33.27 587.00 17.49
-31.77 589.00 17.55
-30.11 588.00 17.52
-28.54 589.00 17.55
-26.98 590.00 17.58
-25.40 591.00 17.61
-23.74 590.00 17.58
-22.16 591.00 17.61
-20.51 590.00 17.58
-18.89 590.00 17.58
-17.30 591.00 17.61
-15.76 594.00 17.70
-14.18 596.00 17.76
-12.59 598.00 17.82
-11.01 601.00 17.91
-9.44 606.00 18.06
-7.84 611.00 18.21
-6.24 618.00 18.42
-4.59 625.00 18.62
-2.91 632.00 18.83
-1.18 634.00 18.89
0.56 637.00 18.98
2.31 638.00 19.01
4.08 641.00 19.10
5.87 645.00 19.22
7.72 652.00 19.43
9.64 661.00 19.70
11.63 671.00 19.99
13.79 687.00 20.47
16.20 710.00 21.16
19.01 744.00 22.17
21.96 776.00 23.12
24.76 798.00 23.78
28.88 791.00 23.57
31.29 797.00 23.75
-118.74 682.00 18.40
-112.77 658.00 17.76
-108.79 645.00 17.41
-106.21 640.00 17.27
-103.97 637.00 17.19
-101.76 634.00 17.11
-98.93 627.00 16.93
-96.13 620.00 16.74
-93.84 616.00 16.63
-91.26 610.00 16.47
-88.86 605.00 16.34
-86.49 600.00 16.20
-84.57 598.00 16.15
-82.53 595.00 16.07
-80.63 593.00 16.02
-78.88 592.00 15.99
-77.27 592.00 15.99
-75.52 591.00 15.97
-73.78 590.00 15.94
-72.30 591.00 15.97
-70.56 590.00 15.94
-68.95 590.00 15.94
-67.22 589.00 15.92
-36.36 585.00 15.82
-34.82 586.00 15.85
-33.22 586.00 15.85
-31.72 588.00 15.91
-30.16 589.00 15.93
-28.54 589.00 15.93
-26.98 590.00 15.96
-25.36 590.00 15.96
-23.82 592.00 16.02
-22.20 592.00 16.02
-20.51 590.00 15.96
-18.89 590.00 15.96
-17.30 591.00 15.99
-15.76 594.00 16.07
-14.18 596.00 16.13
-12.59 598.00 16.18
-11.04 603.00 16.32
-9.47 608.00 16.45
-7.88 614.00 16.61
-6.26 620.00 16.78
-4.61 628.00 16.99
-2.92 634.00 17.15
-1.19 636.00 17.21
0.56 639.00 17.29
2.32 640.00 17.32
4.08 642.00 17.37
5.88 646.00 17.48
7.75 654.00 17.70
9.69 664.00 17.97
11.70 675.00 18.26
13.91 693.00 18.75
16.40 719.00 19.45
19.27 754.00 20.40
22.18 784.00 21.21
29.07 796.00 21.54
-121.18 696.00 16.88
-113.98 665.00 16.13
-109.64 650.00 15.76
-106.71 643.00 15.60
-104.47 640.00 15.52
-101.92 635.00 15.40
-99.40 630.00 15.28
-96.60 623.00 15.12
-93.99 617.00 14.97
-91.41 611.00 14.83
-89.01 606.00 14.71
-86.78 602.00 14.61
-84.72 599.00 14.54
-82.53 595.00 14.44
-80.63 593.00 14.39
-78.61 590.00 14.32
-77.27 592.00 14.37
-75.65 592.00 14.37
-74.03 592.00 14.37
-72.30 591.00 14.35
-70.68 591.00 14.35
-69.19 592.00 14.38
-67.34 590.00 14.33
-39.43 583.00 14.17
-37.90 584.00 14.20
-36.36 585.00 14.22
-34.82 586.00 14.24
-33.33 588.00 14.29
-31.83 590.00 14.34
-30.21 590.00 14.34
-28.59 590.00 14.34
-26.98 590.00 14.34
-25.45 592.00 14.39
-23.90 594.00 14.44
-22.28 594.00 14.44
-20.58 592.00 14.39
-18.99 593.00 14.42
-17.39 594.00 14.44
-15.82 596.00 14.49
-14.21 597.00 14.52
-12.61 599.00 14.57
-11.06 604.00 14.69
-9.50 610.00 14.83
-7.90 616.00 14.98
-6.29 623.00 15.15
-4.64 631.00 15.34
-2.92 635.00 15.44
-1.19 637.00 15.49
0.56 639.00 15.54
2.32 641.00 15.59
4.10 645.00 15.68
5.91 649.00 15.78
7.78 657.00 15.98
9.73 667.00 16.22
11.80 681.00 16.56
14.05 700.00 17.02
16.61 728.00 17.70
19.50 763.00 18.55
22.35 790.00 19.21
-123.80 711.00 15.30
-115.86 676.00 14.55
-110.82 657.00 14.14
-107.20 646.00 13.90
-104.79 642.00 13.82
-102.24 637.00 13.71
-99.88 633.00 13.63
-97.22 627.00 13.50
-94.60 621.00 13.37
-91.86 614.00 13.22
-89.16 607.00 13.07
-86.93 603.00 12.98
-84.86 600.00 12.92
-82.81 597.00 12.86
-80.77 594.00 12.79
-78.88 592.00 12.75
-77.27 592.00 12.75
-75.65 592.00 12.75
-74.04 592.00 12.75
-72.42 592.00 12.75
-70.92 593.00 12.78
-69.30 593.00 12.78
-67.45 591.00 12.73
-65.62 589.00 12.69
-63.79 587.00 12.65
-62.08 586.00 12.63
-60.27 584.00 12.59
-39.50 584.00 12.59
-38.03 586.00 12.64
-36.49 587.00 12.66
-35.00 589.00 12.70
-33.44 590.00 12.73
-31.93 592.00 12.77
-30.31 592.00 12.77
-28.59 590.00 12.73
-26.98 590.00 12.73
-25.40 591.00 12.75
-23.90 594.00 12.81
-22.28 594.00 12.81
-20.61 593.00 12.79
-18.99 593.00 12.79
-17.39 594.00 12.81
-15.82 596.00 12.86
-14.23 598.00 12.90
-12.65 601.00 12.97
-11.10 606.00 13.07
-9.53 612.00 13.20
-7.94 619.00 13.35
-6.32 626.00 13.51
-4.64 632.00 13.64
-2.92 635.00 13.70
-1.19 637.00 13.74
0.56 639.00 13.79
2.33 643.00 13.87
4.12 647.00 13.96
5.94 652.00 14.07
7.82 660.00 14.24
9.80 672.00 14.50
11.92 688.00 14.84
14.23 709.00 15.30
16.86 739.00 15.94
19.73 772.00 16.65
22.55 797.00 17.19
-118.26 690.00 12.96
-112.34 666.00 12.51
-108.04 651.00 12.23
-104.96 643.00 12.08
-102.08 636.00 11.95
-100.03 634.00 11.91
-97.69 630.00 11.84
-95.06 624.00 11.73
-92.31 617.00 11.60
-89.60 610.00 11.47
-87.50 607.00 11.41
-85.14 602.00 11.32
-82.95 598.00 11.24
-80.91 595.00 11.19
-79.02 593.00 11.15
-77.40 593.00 11.15
-75.65 592.00 11.13
-74.04 592.00 11.13
-72.42 592.00 11.13
-70.92 593.00 11.15
-69.19 592.00 11.13
-67.57 592.00 11.14
-65.84 591.00 11.12
-64.01 589.00 11.08
-62.19 587.00 11.04
-60.38 585.00 11.01
-58.58 583.00 10.97
-46.84 576.00 10.84
-45.35 577.00 10.86
-43.99 580.00 10.92
-42.55 582.00 10.96
-41.10 584.00 10.99
-39.57 585.00 11.01
-37.90 584.00 10.99
-36.36 585.00 11.01
-34.94 588.00 11.07
-33.50 591.00 11.13
-31.94 592.00 11.15
-30.26 591.00 11.13
-28.59 590.00 11.11
-27.02 591.00 11.13
-25.40 591.00 11.13
-23.86 593.00 11.17
-22.24 593.00 11.17
-20.65 594.00 11.19
-19.02 594.00 11.19
-17.48 597.00 11.24
-15.90 599.00 11.28
-14.30 601.00 11.32
-12.72 604.00 11.37
-11.14 608.00 11.45
-9.56 614.00 11.56
-7.94 619.00 11.66
-6.34 628.00 11.83
-4.65 633.00 11.92
-2.93 637.00 12.00
-1.19 636.00 11.98
0.56 639.00 12.03
2.32 642.00 12.09
4.12 647.00 12.19
5.94 653.00 12.30
7.86 664.00 12.51
9.88 677.00 12.75
12.06 696.00 13.11
14.43 719.00 13.54
17.15 752.00 14.16
19.98 782.00 14.73
-121.01 706.00 11.33
-114.02 676.00 10.85
-108.87 656.00 10.53
-105.45 646.00 10.37
-102.40 638.00 10.24
-100.35 636.00 10.21
-98.31 634.00 10.18
-95.82 629.00 10.10
-93.06 622.00 9.99
-90.19 614.00 9.86
-87.79 609.00 9.78
-85.43 604.00 9.70
-83.08 599.00 9.62
-81.31 598.00 9.61
-79.42 596.00 9.57
-77.66 595.00 9.56
-75.78 593.00 9.53
-74.16 593.00 9.53
-72.42 592.00 9.51
-70.80 592.00 9.51
-69.07 591.00 9.50
-67.46 591.00 9.50
-65.73 590.00 9.48
-64.12 590.00 9.48
-62.40 589.00 9.47
-60.48 586.00 9.42
-58.78 585.00 9.40
-57.28 586.00 9.42
-55.58 585.00 9.41
-53.89 584.00 9.39
-51.93 580.00 9.33
-50.34 580.00 9.33
-48.67 579.00 9.31
-47.25 581.00 9.34
-45.66 581.00 9.34
-44.30 584.00 9.39
-42.77 585.00 9.41
-41.24 586.00 9.43
-39.57 585.00 9.41
-37.97 585.00 9.41
-36.37 585.00 9.41
-34.88 587.00 9.44
-33.44 590.00 9.49
-31.88 591.00 9.51
-30.31 592.00 9.52
-28.64 591.00 9.51
-27.02 591.00 9.51
-25.40 591.00 9.51
-23.87 593.00 9.54
-22.28 594.00 9.56
-20.68 595.00 9.57
-19.02 594.00 9.56
-17.45 596.00 9.59
-15.90 599.00 9.64
-14.35 603.00 9.70
-12.76 606.00 9.75
-11.15 609.00 9.80
-9.58 615.00 9.90
-7.96 620.00 9.98
-6.34 628.00 10.11
-4.64 632.00 10.17
-2.93 636.00 10.23
-1.19 636.00 10.23
0.56 639.00 10.28
2.33 644.00 10.36
4.13 649.00 10.44
5.98 657.00 10.57
7.91 668.00 10.75
9.99 685.00 11.02
12.25 707.00 11.38
14.73 734.00 11.81
17.47 766.00 12.33
20.24 792.00 12.74
-116.22 689.00 9.17
-110.19 664.00 8.84
-106.10 650.00 8.66
-102.89 641.00 8.54
-100.67 638.00 8.50
-98.31 634.00 8.44
-96.12 631.00 8.41
-93.36 624.00 8.31
-90.63 617.00 8.22
-88.08 611.00 8.14
-85.85 607.00 8.09
-83.64 603.00 8.04
-81.72 601.00 8.01
-79.68 598.00 7.97
-77.92 597.00 7.96
-76.29 597.00 7.96
-74.54 596.00 7.94
-72.67 594.00 7.92
-70.68 591.00 7.88
-68.84 589.00 7.85
-67.34 590.00 7.87
-65.62 589.00 7.85
-64.01 589.00 7.85
-62.29 588.00 7.84
-60.48 586.00 7.81
-58.98 587.00 7.83
-57.37 587.00 7.83
-55.77 587.00 7.83
-54.07 586.00 7.82
-52.20 583.00 7.78
-50.69 584.00 7.79
-49.09 584.00 7.79
-47.66 586.00 7.82
-45.98 585.00 7.80
-44.45 586.00 7.82
-42.85 586.00 7.82
-41.38 588.00 7.85
-39.64 586.00 7.82
-37.97 585.00 7.81
-36.37 585.00 7.81
-34.88 587.00 7.83
-33.33 588.00 7.85
-31.77 589.00 7.86
-30.21 590.00 7.87
-28.59 590.00 7.87
-27.02 591.00 7.89
-25.40 591.00 7.89
-23.83 592.00 7.90
-22.32 595.00 7.94
-20.72 596.00 7.96
-19.09 596.00 7.96
-17.48 597.00 7.97
-15.92 600.00 8.01
-14.37 604.00 8.06
-12.76 606.00 8.09
-11.15 609.00 8.13
-9.58 615.00 8.21
-7.94 619.00 8.26
-6.34 628.00 8.38
-4.65 633.00 8.45
-2.93 637.00 8.50
-1.19 637.00 8.50
0.56 641.00 8.56
2.33 645.00 8.61
4.15 652.00 8.70
6.01 660.00 8.81
8.00 675.00 9.01
10.12 694.00 9.26
12.46 719.00 9.60
15.01 748.00 9.99
17.70 776.00 10.36
20.39 798.00 10.65
-119.09 706.00 7.47
-111.85 674.00 7.13
-107.08 656.00 6.94
-103.69 646.00 6.84
-100.98 640.00 6.77
-98.62 636.00 6.73
-96.58 634.00 6.71
-94.11 629.00 6.66
-91.22 621.00 6.57
-88.37 613.00 6.49
-85.99 608.00 6.44
-83.78 604.00 6.40
-81.86 602.00 6.37
-79.82 599.00 6.34
-78.05 598.00 6.33
-76.29 597.00 6.32
-74.66 597.00 6.32
-72.79 595.00 6.30
-70.92 593.00 6.28
-68.95 590.00 6.25
-67.23 589.00 6.24
-65.29 586.00 6.21
-63.79 587.00 6.22
-62.19 587.00 6.22
-60.48 586.00 6.21
-58.78 585.00 6.20
-57.08 584.00 6.19
-55.48 584.00 6.19
-53.89 584.00 6.19
-52.20 583.00 6.18
-50.78 585.00 6.20
-49.26 586.00 6.21
-47.82 588.00 6.23
-46.05 586.00 6.21
-44.37 585.00 6.20
-42.77 585.00 6.20
-41.31 587.00 6.22
-39.71 587.00 6.22
-38.10 587.00 6.22
-36.49 587.00 6.22
-34.88 587.00 6.22
-33.27 587.00 6.22
-31.67 587.00 6.23
-30.16 589.00 6.25
-28.55 589.00 6.25
-26.93 589.00 6.25
-25.40 591.00 6.27
-23.91 594.00 6.30
-22.39 597.00 6.33
-20.79 598.00 6.34
-19.15 598.00 6.34
-17.48 597.00 6.33
-15.92 600.00 6.36
-14.33 602.00 6.39
-12.74 605.00 6.42
-11.14 608.00 6.45
-9.58 615.00 6.52
-7.97 621.00 6.59
-6.34 628.00 6.66
-4.64 632.00 6.70
-2.93 635.00 6.74
-1.19 637.00 6.76
0.56 642.00 6.81
2.35 648.00 6.87
4.17 656.00 6.96
6.07 667.00 7.08
8.09 683.00 7.25
10.28 705.00 7.48
12.72 734.00 7.79
15.31 763.00 8.09
17.95 787.00 8.35
-114.34 689.00 5.41
-108.71 666.00 5.23
-104.33 650.00 5.10
-101.14 641.00 5.03
-98.47 635.00 4.98
-96.58 634.00 4.98
-94.26 630.00 4.95
-91.51 623.00 4.89
-88.80 616.00 4.84
-86.56 612.00 4.80
-84.20 607.00 4.77
-82.13 604.00 4.74
-79.95 600.00 4.71
-78.05 598.00 4.70
-76.29 597.00 4.69
-74.66 597.00 4.69
-72.79 595.00 4.67
-70.92 593.00 4.66
-68.95 590.00 4.63
-67.23 589.00 4.63
-65.29 586.00 4.60
-63.79 587.00 4.61
-62.08 586.00 4.60
-60.48 586.00 4.60
-58.58 583.00 4.58
-56.89 582.00 4.57
-55.29 582.00 4.57
-53.79 583.00 4.58
-52.11 582.00 4.57
-50.69 584.00 4.59
-49.26 586.00 4.61
-47.74 587.00 4.61
-45.90 584.00 4.59
-44.15 582.00 4.58
-42.55 582.00 4.58
-41.17 585.00 4.60
-39.64 586.00 4.61
-38.10 587.00 4.62
-36.43 586.00 4.61
-34.82 586.00 4.61
-33.16 585.00 4.60
-31.61 586.00 4.61
-30.01 586.00 4.61
-28.50 588.00 4.62
-26.93 589.00 4.63
-25.45 592.00 4.66
-23.91 594.00 4.67
-22.43 598.00 4.70
-20.86 600.00 4.72
-19.18 599.00 4.71
-17.51 598.00 4.70
-15.92 600.00 4.72
-14.30 601.00 4.73
-12.72 604.00 4.75
-11.14 608.00 4.78
-9.59 616.00 4.85
-7.98 622.00 4.89
-6.35 629.00 4.95
-4.64 632.00 4.97
-2.93 635.00 5.00
-1.19 637.00 5.01
0.56 642.00 5.05
2.35 650.00 5.11
4.20 660.00 5.19
6.14 674.00 5.30
8.20 692.00 5.44
10.46 717.00 5.64
12.94 747.00 5.88
15.53 774.00 6.09
18.11 794.00 6.25
-117.50 708.00 3.62
-110.84 679.00 3.47
-105.46 657.00 3.36
-101.77 645.00 3.30
-98.78 637.00 3.26
-96.74 635.00 3.25
-94.41 631.00 3.23
-91.81 625.00 3.20
-88.95 617.00 3.16
-86.56 612.00 3.13
-84.20 607.00 3.10
-82.13 604.00 3.09
-80.08 601.00 3.07
-78.18 599.00 3.06
-76.42 598.00 3.06
-74.79 598.00 3.06
-72.79 595.00 3.04
-70.93 593.00 3.03
-68.95 590.00 3.02
-67.11 588.00 3.01
-65.06 584.00 2.99
-63.58 585.00 2.99
-61.87 584.00 2.99
-60.27 584.00 2.99
-58.38 581.00 2.97
-56.69 580.00 2.97
-55.20 581.00 2.97
-53.61 581.00 2.97
-52.02 581.00 2.97
-50.52 582.00 2.98
-49.18 585.00 3.00
-47.66 586.00 3.00
-45.74 582.00 2.98
-43.92 579.00 2.97
-42.41 580.00 2.97
-41.03 583.00 2.99
-39.50 584.00 2.99
-37.90 584.00 2.99
-36.30 584.00 2.99
-34.70 584.00 2.99
-33.16 585.00 3.00
-31.61 586.00 3.00
-30.06 587.00 3.01
-28.50 588.00 3.01
-26.98 590.00 3.02
-25.40 591.00 3.03
-23.91 594.00 3.04
-22.47 599.00 3.07
-20.89 601.00 3.08
-19.25 601.00 3.08
-17.60 601.00 3.08
-15.98 602.00 3.08
-14.33 602.00 3.08
-12.76 606.00 3.11
-11.17 610.00 3.13
-9.62 618.00 3.17
-8.01 624.00 3.20
-6.36 630.00 3.23
-4.65 633.00 3.24
-2.93 636.00 3.26
-1.19 638.00 3.27
0.57 644.00 3.30
2.37 655.00 3.36
4.25 668.00 3.42
6.23 684.00 3.50
8.34 704.00 3.61
10.65 730.00 3.74
13.15 759.00 3.89
15.74 784.00 4.02
-113.61 696.00 1.65
-107.06 667.00 1.59
-102.40 649.00 1.54
-99.09 639.00 1.52
-96.74 635.00 1.51
-94.41 631.00 1.50
-91.81 625.00 1.49
-88.95 617.00 1.47
-86.56 612.00 1.46
-84.33 608.00 1.45
-82.27 605.00 1.44
-80.08 601.00 1.43
-78.31 600.00 1.43
-76.42 598.00 1.42
-74.66 597.00 1.42
-72.54 593.00 1.41
-70.57 590.00 1.40
-68.72 588.00 1.40
-66.89 586.00 1.39
-65.06 584.00 1.39
-63.47 584.00 1.39
-61.87 584.00 1.39
-60.17 583.00 1.39
-58.28 580.00 1.38
-56.59 579.00 1.38
-55.20 581.00 1.38
-53.70 582.00 1.39
-52.11 582.00 1.39
-50.52 582.00 1.39
-49.01 583.00 1.39
-47.41 583.00 1.39
-45.66 581.00 1.38
-43.92 579.00 1.38
-42.41 580.00 1.38
-40.82 580.00 1.38
-39.30 581.00 1.38
-37.64 580.00 1.38
-36.18 582.00 1.39
-34.59 582.00 1.39
-33.10 584.00 1.39
-31.50 584.00 1.39
-30.01 586.00 1.40
-28.55 589.00 1.40
-26.93 589.00 1.40
-25.36 590.00 1.41
-23.87 593.00 1.41
-22.39 597.00 1.42
-20.82 599.00 1.43
-19.25 601.00 1.43
-17.57 600.00 1.43
-15.98 602.00 1.43
-14.35 603.00 1.44
-12.78 607.00 1.45
-11.21 612.00 1.46
-9.64 619.00 1.47
-8.02 625.00 1.49
-6.37 631.00 1.50
-4.67 635.00 1.51
-2.93 637.00 1.52
-1.19 640.00 1.52
0.57 647.00 1.54
2.39 659.00 1.57
4.29 674.00 1.61
6.31 693.00 1.65
8.48 716.00 1.71
10.84 743.00 1.77
13.29 767.00 1.83
15.80 787.00 1.87
-117.20 718.00 -0.26
-109.63 683.00 -0.25
-103.98 659.00 -0.24
-99.86 644.00 -0.23
-97.04 637.00 -0.23
-94.71 633.00 -0.23
-91.95 626.00 -0.22
-89.24 619.00 -0.22
-86.56 612.00 -0.22
-84.33 608.00 -0.22
-82.27 605.00 -0.22
-80.22 602.00 -0.22
-78.31 600.00 -0.22
-76.29 597.00 -0.21
-74.54 596.00 -0.21
-72.42 592.00 -0.21
-70.69 591.00 -0.21
-68.84 589.00 -0.21
-67.00 587.00 -0.21
-65.17 585.00 -0.21
-63.36 583.00 -0.21
-61.77 583.00 -0.21
-59.97 581.00 -0.21
-58.28 580.00 -0.21
-56.69 580.00 -0.21
-55.20 581.00 -0.21
-53.52 580.00 -0.21
-51.93 580.00 -0.21
-50.43 581.00 -0.21
-48.93 582.00 -0.21
-47.33 582.00 -0.21
-45.66 581.00 -0.21
-44.07 581.00 -0.21
-42.55 582.00 -0.21
-40.89 581.00 -0.21
-39.23 580.00 -0.21
-37.58 579.00 -0.21
-36.06 580.00 -0.21
-34.47 580.00 -0.21
-32.99 582.00 -0.21
-31.45 583.00 -0.21
-29.96 585.00 -0.21
-28.45 587.00 -0.21
-26.89 588.00 -0.21
-25.32 589.00 -0.21
-23.83 592.00 -0.21
-22.35 596.00 -0.21
-20.79 598.00 -0.22
-19.18 599.00 -0.22
-17.54 599.00 -0.22
-15.98 602.00 -0.22
-14.35 603.00 -0.22
-12.80 608.00 -0.22
-11.23 613.00 -0.22
-9.67 621.00 -0.22
-8.06 628.00 -0.23
-6.40 634.00 -0.23
-4.68 637.00 -0.23
-2.95 640.00 -0.23
-1.20 644.00 -0.23
0.57 653.00 -0.23
2.41 667.00 -0.24
4.36 685.00 -0.25
6.42 705.00 -0.25
8.64 729.00 -0.26
11.01 755.00 -0.27
13.46 777.00 -0.28
15.90 792.00 -0.28
-112.68 702.00 -2.17
-105.72 670.00 -2.07
-101.10 652.00 -2.02
-97.80 642.00 -1.99
-95.01 635.00 -1.97
-92.39 629.00 -1.95
-89.67 622.00 -1.93
-86.84 614.00 -1.90
-84.47 609.00 -1.89
-82.27 605.00 -1.87
-80.22 602.00 -1.86
-78.05 598.00 -1.85
-76.04 595.00 -1.84
-74.16 593.00 -1.84
-72.30 591.00 -1.83
-70.57 590.00 -1.83
-68.84 589.00 -1.82
-66.89 586.00 -1.82
-65.06 584.00 -1.81
-63.36 583.00 -1.81
-61.98 585.00 -1.81
-60.17 583.00 -1.81
-58.58 583.00 -1.81
-56.89 582.00 -1.80
-55.20 581.00 -1.80
-53.52 580.00 -1.80
-51.84 579.00 -1.79
-50.43 581.00 -1.80
-48.84 581.00 -1.80
-47.25 581.00 -1.80
-45.58 580.00 -1.80
-44.07 581.00 -1.80
-42.55 582.00 -1.80
-40.82 580.00 -1.80
-39.23 580.00 -1.80
-37.51 578.00 -1.79
-35.99 579.00 -1.80
-34.41 579.00 -1.80
-32.88 580.00 -1.80
-31.34 581.00 -1.80
-29.85 583.00 -1.81
-28.35 585.00 -1.81
-26.84 587.00 -1.82
-25.32 589.00 -1.83
-23.83 592.00 -1.84
-22.28 594.00 -1.84
-20.75 597.00 -1.85
-19.15 598.00 -1.85
-17.54 599.00 -1.86
-15.92 600.00 -1.86
-14.35 603.00 -1.87
-12.78 607.00 -1.88
-11.28 616.00 -1.91
-9.72 624.00 -1.94
-8.11 632.00 -1.96
-6.42 636.00 -1.97
-4.70 639.00 -1.98
-2.95 641.00 -1.99
-1.21 648.00 -2.01
0.58 660.00 -2.05
2.45 677.00 -2.10
4.42 695.00 -2.16
6.52 716.00 -2.22
8.75 739.00 -2.29
11.12 762.00 -2.36
13.53 781.00 -2.42
16.00 797.00 -2.47
-109.19 692.00 -4.03
-102.96 664.00 -3.87
-99.02 650.00 -3.79
-95.60 639.00 -3.73
-92.98 633.00 -3.69
-90.25 626.00 -3.65
-87.41 618.00 -3.60
-84.89 612.00 -3.57
-82.54 607.00 -3.54
-80.35 603.00 -3.52
-78.31 600.00 -3.50
-76.29 597.00 -3.48
-74.41 595.00 -3.47
-72.54 593.00 -3.46
-70.69 591.00 -3.45
-68.72 588.00 -3.43
-66.89 586.00 -3.42
-65.06 584.00 -3.41
-63.36 583.00 -3.40
-61.98 585.00 -3.41
-60.17 583.00 -3.40
-58.68 584.00 -3.41
-56.89 582.00 -3.40
-55.20 581.00 -3.39
-53.52 580.00 -3.39
-51.84 579.00 -3.38
-50.43 581.00 -3.39
-48.76 580.00 -3.39
-47.25 581.00 -3.39
-45.66 581.00 -3.39
-44.07 581.00 -3.39
-42.41 580.00 -3.39
-40.82 580.00 -3.39
-39.23 580.00 -3.39
-37.58 579.00 -3.38
-36.12 581.00 -3.39
-34.47 580.00 -3.39
-32.93 581.00 -3.39
-31.34 581.00 -3.39
-29.85 583.00 -3.41
-28.35 585.00 -3.42
-26.84 587.00 -3.43
-25.32 589.00 -3.44
-23.79 591.00 -3.45
-22.24 593.00 -3.46
-20.68 595.00 -3.48
-19.15 598.00 -3.49
-17.57 600.00 -3.51
-16.00 603.00 -3.52
-14.42 606.00 -3.54
-12.89 612.00 -3.58
-11.36 620.00 -3.62
-9.80 629.00 -3.68
-8.17 637.00 -3.72
-6.46 640.00 -3.74
-4.73 643.00 -3.76
-2.98 646.00 -3.78
-1.22 656.00 -3.83
0.59 671.00 -3.92
2.50 692.00 -4.04
4.53 712.00 -4.16
6.65 731.00 -4.27
8.86 748.00 -4.37
11.16 765.00 -4.47
13.60 785.00 -4.59
-113.45 719.00 -6.16
-105.91 683.00 -5.85
-100.70 661.00 -5.66
-96.65 646.00 -5.53
-93.42 636.00 -5.45
-90.68 629.00 -5.39
-88.11 623.00 -5.34
-85.31 615.00 -5.27
-82.81 609.00 -5.22
-80.62 605.00 -5.19
-78.44 601.00 -5.15
-76.17 596.00 -5.11
-74.29 594.00 -5.09
-72.42 592.00 -5.08
-70.57 590.00 -5.06
-68.49 586.00 -5.02
-66.66 584.00 -5.01
-64.84 582.00 -4.99
-63.36 583.00 -5.00
-61.87 584.00 -5.01
-60.17 583.00 -5.00
-58.48 582.00 -4.99
-56.79 581.00 -4.98
-55.20 581.00 -4.98
-53.61 581.00 -4.98
-51.93 580.00 -4.98
-50.34 580.00 -4.98
-48.76 580.00 -4.98
-47.17 580.00 -4.98
-45.58 580.00 -4.98
-43.92 579.00 -4.97
-42.26 578.00 -4.96
-40.61 577.00 -4.95
-39.10 578.00 -4.96
-37.51 578.00 -4.96
-36.12 581.00 -4.99
-34.53 581.00 -4.99
-32.99 582.00 -5.00
-31.40 582.00 -5.00
-29.90 584.00 -5.01
-28.45 587.00 -5.04
-26.89 588.00 -5.05
-25.36 590.00 -5.06
-23.79 591.00 -5.07
-22.24 593.00 -5.09
-20.68 595.00 -5.11
-19.15 598.00 -5.13
-17.63 602.00 -5.17
-16.08 606.00 -5.20
-14.54 611.00 -5.25
-12.99 617.00 -5.30
-11.45 625.00 -5.37
-9.83 631.00 -5.42
-8.17 637.00 -5.47
-6.45 639.00 -5.49
-4.74 645.00 -5.54
-3.00 652.00 -5.60
-1.24 666.00 -5.72
0.60 683.00 -5.86
2.55 704.00 -6.04
4.60 723.00 -6.21
6.73 739.00 -6.34
8.87 749.00 -6.43
11.13 763.00 -6.55
13.55 782.00 -6.71
-110.40 712.00 -8.05
-103.74 681.00 -7.70
-98.59 659.00 -7.45
-94.89 646.00 -7.30
-91.69 636.00 -7.19
-88.82 628.00 -7.10
-86.14 621.00 -7.02
-83.63 615.00 -6.95
-81.15 609.00 -6.89
-78.71 603.00 -6.82
-76.42 598.00 -6.76
-74.54 596.00 -6.74
-72.79 595.00 -6.73
-70.80 592.00 -6.70
-68.60 587.00 -6.64
-66.77 585.00 -6.62
-65.06 584.00 -6.61
-63.58 585.00 -6.62
-61.87 584.00 -6.61
-59.96 581.00 -6.57
-58.18 579.00 -6.55
-56.59 579.00 -6.55
-55.10 580.00 -6.56
-53.52 580.00 -6.56
-51.84 579.00 -6.55
-50.26 579.00 -6.55
-48.59 578.00 -6.54
-47.09 579.00 -6.55
-45.50 579.00 -6.55
-43.84 578.00 -6.54
-42.26 578.00 -6.54
-40.68 578.00 -6.54
-39.16 579.00 -6.56
-37.64 580.00 -6.57
-36.12 581.00 -6.58
-34.53 581.00 -6.58
-32.93 581.00 -6.58
-31.45 583.00 -6.60
-29.96 585.00 -6.62
-28.45 587.00 -6.65
-26.89 588.00 -6.66
-25.28 588.00 -6.66
-23.74 590.00 -6.68
-22.24 593.00 -6.72
-20.72 596.00 -6.75
-19.18 599.00 -6.78
-17.69 604.00 -6.84
-16.14 608.00 -6.89
-14.66 616.00 -6.98
-13.12 623.00 -7.06
-11.58 632.00 -7.16
-9.90 636.00 -7.20
-8.21 640.00 -7.25
-6.50 644.00 -7.29
-4.79 652.00 -7.39
-3.06 664.00 -7.52
-1.27 680.00 -7.70
0.61 697.00 -7.90
2.59 715.00 -8.10
4.65 731.00 -8.28
6.75 741.00 -8.39
8.86 748.00 -8.47
11.07 759.00 -8.60
13.50 779.00 -8.82
-107.85 708.00 -9.94
-101.59 679.00 -9.53
-96.65 658.00 -9.24
-92.98 645.00 -9.06
-89.95 636.00 -8.93
-87.25 629.00 -8.83
-84.44 621.00 -8.72
-81.68 613.00 -8.61
-78.97 605.00 -8.50
-76.55 599.00 -8.41
-74.54 596.00 -8.37
-72.79 595.00 -8.36
-70.80 592.00 -8.32
-68.84 589.00 -8.28
-66.89 586.00 -8.23
-65.28 586.00 -8.23
-63.68 586.00 -8.24
-61.98 585.00 -8.22
-59.96 581.00 -8.17
-58.28 580.00 -8.15
-56.69 580.00 -8.15
-55.10 580.00 -8.15
-53.33 578.00 -8.13
-51.75 578.00 -8.13
-50.17 578.00 -8.13
-48.59 578.00 -8.13
-47.01 578.00 -8.13
-45.43 578.00 -8.13
-43.84 578.00 -8.13
-42.26 578.00 -8.13
-40.68 578.00 -8.13
-39.16 579.00 -8.14
-37.64 580.00 -8.16
-36.05 580.00 -8.16
-34.47 580.00 -8.16
-32.88 580.00 -8.16
-31.45 583.00 -8.20
-30.01 586.00 -8.24
-28.50 588.00 -8.27
-26.93 589.00 -8.29
-25.36 590.00 -8.30
-23.83 592.00 -8.33
-22.24 593.00 -8.34
-20.72 596.00 -8.38
-19.18 599.00 -8.43
-17.72 605.00 -8.51
-16.24 612.00 -8.61
-14.78 621.00 -8.74
-13.24 629.00 -8.85
-11.67 637.00 -8.96
-9.98 641.00 -9.02
-8.28 645.00 -9.07
-6.57 651.00 -9.16
-4.86 661.00 -9.30
-3.11 675.00 -9.50
-1.29 692.00 -9.74
0.62 710.00 -9.99
2.61 722.00 -10.16
4.64 729.00 -10.26
6.70 736.00 -10.35
8.79 742.00 -10.44
11.01 755.00 -10.62
13.46 777.00 -10.93
-106.22 710.00 -11.91
-100.03 681.00 -11.43
-95.29 661.00 -11.09
-91.51 647.00 -10.86
-88.49 638.00 -10.71
-85.67 630.00 -10.57
-82.75 621.00 -10.42
-79.88 612.00 -10.27
-77.31 605.00 -10.15
-75.16 601.00 -10.09
-73.15 598.00 -10.04
-71.04 594.00 -9.97
-68.95 590.00 -9.91
-67.00 587.00 -9.86
-65.40 587.00 -9.86
-63.68 586.00 -9.84
-62.08 586.00 -9.84
-60.07 582.00 -9.77
-58.38 581.00 -9.76
-56.59 579.00 -9.72
-55.10 580.00 -9.74
-53.33 578.00 -9.71
-51.75 578.00 -9.71
-50.17 578.00 -9.71
-48.50 577.00 -9.69
-46.93 577.00 -9.69
-45.35 577.00 -9.69
-43.84 578.00 -9.71
-42.33 579.00 -9.73
-40.75 579.00 -9.73
-39.23 580.00 -9.75
-37.64 580.00 -9.75
-36.12 581.00 -9.76
-34.58 582.00 -9.78
-33.05 583.00 -9.80
-31.56 585.00 -9.83
-30.11 588.00 -9.88
-28.55 589.00 -9.90
-26.98 590.00 -9.92
-25.36 590.00 -9.92
-23.82 592.00 -9.95
-22.28 594.00 -9.98
-20.79 598.00 -10.05
-19.28 602.00 -10.12
-17.83 609.00 -10.24
-16.38 617.00 -10.37
-14.92 627.00 -10.54
-13.39 636.00 -10.69
-11.78 643.00 -10.81
-10.11 649.00 -10.91
-8.40 655.00 -11.01
-6.71 665.00 -11.18
-4.96 675.00 -11.35
-3.17 689.00 -11.58
-1.31 703.00 -11.82
0.63 717.00 -12.05
2.62 723.00 -12.15
4.62 727.00 -12.22
6.65 730.00 -12.27
8.74 738.00 -12.41
10.97 752.00 -12.64
13.48 778.00 -13.08
-104.43 711.00 -13.87
-98.46 683.00 -13.33
-93.63 662.00 -12.92
-89.88 648.00 -12.65
-86.75 638.00 -12.45
-83.81 629.00 -12.28
-81.05 621.00 -12.12
-78.34 613.00 -11.97
-75.91 607.00 -11.85
-73.64 602.00 -11.75
-71.16 595.00 -11.62
-68.95 590.00 -11.52
-66.88 586.00 -11.44
-65.28 586.00 -11.44
-63.68 586.00 -11.44
-62.08 586.00 -11.45
-60.17 583.00 -11.39
-58.58 583.00 -11.39
-56.69 580.00 -11.33
-55.10 580.00 -11.33
-53.33 578.00 -11.29
-51.84 579.00 -11.31
-50.26 579.00 -11.31
-48.59 578.00 -11.29
-46.93 577.00 -11.27
-45.35 577.00 -11.28
-43.84 578.00 -11.30
-42.41 580.00 -11.33
-40.82 580.00 -11.34
-39.23 580.00 -11.34
-37.64 580.00 -11.34
-36.12 581.00 -11.36
-34.64 583.00 -11.40
-33.16 585.00 -11.43
-31.67 587.00 -11.47
-30.16 589.00 -11.51
-28.59 590.00 -11.53
-27.02 591.00 -11.55
-25.45 592.00 -11.57
-23.95 595.00 -11.63
-22.35 596.00 -11.65
-20.86 600.00 -11.73
-19.34 604.00 -11.81
-17.92 612.00 -11.97
-16.53 623.00 -12.18
-15.09 634.00 -12.40
-13.54 643.00 -12.57
-11.87 648.00 -12.67
-10.20 655.00 -12.81
-8.52 664.00 -12.98
-6.81 675.00 -13.20
-5.03 685.00 -13.39
-3.21 696.00 -13.61
-1.31 705.00 -13.78
0.63 714.00 -13.96
2.60 718.00 -14.04
4.59 721.00 -14.10
6.60 725.00 -14.18
8.68 733.00 -14.33
10.93 749.00 -14.64
13.52 780.00 -15.25
-102.78 713.00 -15.86
-96.88 685.00 -15.24
-92.10 664.00 -14.78
-88.52 651.00 -14.49
-85.54 642.00 -14.29
-82.49 632.00 -14.07
-79.48 622.00 -13.85
-76.79 614.00 -13.67
-74.25 607.00 -13.51
-71.64 599.00 -13.34
-69.19 592.00 -13.18
-66.88 586.00 -13.05
-65.28 586.00 -13.05
-63.79 587.00 -13.07
-62.19 587.00 -13.07
-60.38 585.00 -13.03
-58.58 583.00 -12.98
-56.69 580.00 -12.92
-55.10 580.00 -12.92
-53.52 580.00 -12.92
-51.93 580.00 -12.92
-50.26 579.00 -12.90
-48.59 578.00 -12.88
-47.01 578.00 -12.88
-45.50 579.00 -12.90
-43.99 580.00 -12.92
-42.41 580.00 -12.92
-40.89 581.00 -12.95
-39.23 580.00 -12.92
-37.71 581.00 -12.95
-36.18 582.00 -12.97
-34.70 584.00 -13.02
-33.33 588.00 -13.10
-31.83 590.00 -13.15
-30.31 592.00 -13.19
-28.64 591.00 -13.17
-27.07 592.00 -13.20
-25.49 593.00 -13.22
-23.99 596.00 -13.29
-22.43 598.00 -13.33
-20.93 602.00 -13.42
-19.53 610.00 -13.60
-18.12 619.00 -13.80
-16.80 633.00 -14.11
-15.28 642.00 -14.31
-13.71 651.00 -14.51
-12.03 657.00 -14.65
-10.37 666.00 -14.85
-8.66 675.00 -15.05
-6.92 686.00 -15.29
-5.09 693.00 -15.45
-3.23 701.00 -15.63
-1.31 705.00 -15.72
0.62 711.00 -15.85
2.58 714.00 -15.92
4.56 717.00 -15.99
6.56 721.00 -16.07
8.65 730.00 -16.27
10.90 747.00 -16.65
13.53 781.00 -17.41
-106.53 739.00 -18.47
-100.98 714.00 -17.84
-95.43 688.00 -17.19
-90.83 668.00 -16.69
-87.28 655.00 -16.37
-84.05 644.00 -16.10
-80.76 632.00 -15.80
-77.79 622.00 -15.55
-74.99 613.00 -15.32
-72.24 604.00 -15.10
-69.65 596.00 -14.90
-67.23 589.00 -14.73
-65.50 588.00 -14.70
-63.79 587.00 -14.68
-62.19 587.00 -14.68
-60.48 586.00 -14.66
-58.67 584.00 -14.61
-56.88 582.00 -14.56
-55.20 581.00 -14.53
-53.61 581.00 -14.53
-52.11 582.00 -14.56
-50.52 582.00 -14.56
-48.92 582.00 -14.56
-47.25 581.00 -14.54
-45.66 581.00 -14.54
-44.14 582.00 -14.56
-42.62 583.00 -14.59
-41.03 583.00 -14.59
-39.43 583.00 -14.59
-37.84 583.00 -14.59
-36.30 584.00 -14.62
-34.82 586.00 -14.67
-33.39 589.00 -14.74
-31.88 591.00 -14.79
-30.36 593.00 -14.84
-28.74 593.00 -14.84
-27.16 594.00 -14.87
-25.58 595.00 -14.89
-24.07 598.00 -14.97
-22.50 600.00 -15.02
-21.03 605.00 -15.14
-19.63 613.00 -15.35
-18.33 626.00 -15.67
-17.01 641.00 -16.05
-15.49 651.00 -16.30
-13.90 660.00 -16.52
-12.20 666.00 -16.67
-10.51 675.00 -16.90
-8.75 682.00 -17.07
-6.95 689.00 -17.25
-5.09 693.00 -17.35
-3.22 698.00 -17.48
-1.31 701.00 -17.55
0.62 704.00 -17.63
2.56 707.00 -17.70
4.52 710.00 -17.78
6.52 716.00 -17.93
8.60 726.00 -18.18
10.85 744.00 -18.63
13.52 780.00 -19.53
-108.69 754.00 -20.90
-103.95 735.00 -20.38
-98.89 713.00 -19.77
-94.09 692.00 -19.19
-89.81 674.00 -18.69
-86.01 659.00 -18.28
-82.55 646.00 -17.92
-79.41 635.00 -17.61
-76.21 623.00 -17.28
-73.19 612.00 -16.98
-70.47 603.00 -16.73
-67.91 595.00 -16.51
-66.06 593.00 -16.45
-64.22 591.00 -16.40
-62.61 591.00 -16.40
-60.79 589.00 -16.34
-58.87 586.00 -16.26
-57.18 585.00 -16.23
-55.48 584.00 -16.21
-53.98 585.00 -16.24
-52.38 585.00 -16.24
-50.78 585.00 -16.24
-49.17 585.00 -16.24
-47.57 585.00 -16.24
-45.97 585.00 -16.24
-44.45 586.00 -16.27
-42.84 586.00 -16.27
-41.31 587.00 -16.30
-39.77 588.00 -16.33
-38.16 588.00 -16.33
-36.67 590.00 -16.38
-35.06 590.00 -16.38
-33.56 592.00 -16.44
-32.04 594.00 -16.50
-30.52 596.00 -16.55
-28.93 597.00 -16.58
-27.34 598.00 -16.61
-25.75 599.00 -16.64
-24.23 602.00 -16.72
-22.61 603.00 -16.75
-21.24 611.00 -16.97
-19.88 621.00 -17.25
-18.65 637.00 -17.69
-17.28 651.00 -18.08
-15.78 663.00 -18.42
-14.11 670.00 -18.61
-12.38 676.00 -18.78
-10.61 681.00 -18.92
-8.78 684.00 -19.00
-6.93 687.00 -19.08
-5.08 691.00 -19.19
-3.20 695.00 -19.31
-1.30 697.00 -19.36
0.61 700.00 -19.44
2.54 702.00 -19.50
4.48 705.00 -19.58
6.46 710.00 -19.72
8.56 723.00 -20.08
10.81 741.00 -20.58
13.48 778.00 -21.61
-104.37 738.00 -22.48
-100.42 724.00 -22.06
-96.13 707.00 -21.54
-92.07 691.00 -21.05
-88.23 676.00 -20.60
-84.72 663.00 -20.20
-81.29 650.00 -19.81
-77.92 637.00 -19.41
-74.63 624.00 -19.02
-71.75 614.00 -18.71
-68.94 604.00 -18.41
-66.73 599.00 -18.26
-64.55 594.00 -18.11
-62.82 593.00 -18.08
-61.10 592.00 -18.05
-59.38 591.00 -18.02
-57.57 589.00 -17.96
-55.86 588.00 -17.93
-54.25 588.00 -17.93
-52.64 588.00 -17.93
-51.03 588.00 -17.93
-49.43 588.00 -17.93
-47.90 589.00 -17.96
-46.29 589.00 -17.96
-44.75 590.00 -18.00
-43.14 590.00 -18.00
-41.66 592.00 -18.06
-40.11 593.00 -18.09
-38.55 594.00 -18.12
-36.92 594.00 -18.12
-35.35 595.00 -18.15
-33.78 596.00 -18.18
-32.26 598.00 -18.24
-30.67 599.00 -18.28
-29.13 601.00 -18.34
-27.52 602.00 -18.37
-25.88 602.00 -18.37
-24.35 605.00 -18.46
-22.84 609.00 -18.58
-21.52 619.00 -18.89
-20.17 630.00 -19.22
-18.91 646.00 -19.71
-17.49 659.00 -20.11
-15.92 669.00 -20.42
-14.21 675.00 -20.60
-12.42 678.00 -20.69
-10.57 679.00 -20.72
-8.73 680.00 -20.75
-6.87 681.00 -20.78
-5.03 684.00 -20.87
-3.16 687.00 -20.97
-1.28 689.00 -21.03
0.61 691.00 -21.09
2.52 695.00 -21.21
4.45 700.00 -21.36
6.44 707.00 -21.58
8.52 719.00 -21.94
10.75 737.00 -22.49
13.43 775.00 -23.65
-107.10 743.00 -24.66
-103.38 731.00 -24.27
-100.00 721.00 -23.94
-96.81 712.00 -23.64
-93.67 703.00 -23.34
-90.44 693.00 -23.01
-87.02 681.00 -22.61
-83.54 668.00 -22.18
-80.00 654.00 -21.72
-76.66 641.00 -21.29
-73.51 629.00 -20.89
-70.53 618.00 -20.53
-67.84 609.00 -20.23
-65.63 604.00 -20.07
-63.77 602.00 -20.00
-61.92 600.00 -19.94
-60.08 598.00 -19.87
-58.25 596.00 -19.80
-56.43 594.00 -19.74
-54.90 595.00 -19.77
-53.18 594.00 -19.74
-51.55 594.00 -19.74
-49.85 593.00 -19.71
-48.39 595.00 -19.78
-46.84 596.00 -19.81
-45.28 597.00 -19.84
-43.57 596.00 -19.81
-42.01 597.00 -19.85
-40.51 599.00 -19.91
-38.94 600.00 -19.95
-37.29 600.00 -19.95
-35.71 601.00 -19.98
-34.12 602.00 -20.02
-32.58 604.00 -20.08
-30.93 604.00 -20.08
-29.42 607.00 -20.18
-27.80 608.00 -20.22
-26.18 609.00 -20.25
-24.67 613.00 -20.39
-23.33 622.00 -20.68
-22.04 634.00 -21.08
-20.68 646.00 -21.48
-19.27 658.00 -21.88
-17.73 668.00 -22.22
-16.02 673.00 -22.38
-14.21 675.00 -22.45
-12.40 677.00 -22.52
-10.54 677.00 -22.52
-8.69 677.00 -22.52
-6.85 679.00 -22.58
-5.00 681.00 -22.65
-3.15 684.00 -22.75
-1.28 685.00 -22.78
0.60 688.00 -22.88
2.50 691.00 -22.98
4.43 697.00 -23.18
6.42 705.00 -23.45
8.50 718.00 -23.88
10.72 735.00 -24.45
13.38 772.00 -25.68
-105.52 732.00 -26.30
-101.82 720.00 -25.87
-98.61 711.00 -25.55
-95.86 705.00 -25.34
-93.27 700.00 -25.16
-90.83 696.00 -25.02
-88.04 689.00 -24.77
-85.03 680.00 -24.44
-81.71 668.00 -24.01
-78.57 657.00 -23.62
-75.72 648.00 -23.30
-72.70 637.00 -22.90
-69.62 625.00 -22.47
-66.94 616.00 -22.15
-64.72 611.00 -21.97
-62.85 609.00 -21.90
-60.88 606.00 -21.80
-59.03 604.00 -21.72
-57.28 603.00 -21.69
-55.73 604.00 -21.73
-53.98 603.00 -21.69
-52.25 602.00 -21.66
-50.43 600.00 -21.59
-48.95 602.00 -21.66
-47.39 603.00 -21.70
-45.81 604.00 -21.73
-44.08 603.00 -21.70
-42.57 605.00 -21.77
-41.05 607.00 -21.84
-39.46 608.00 -21.88
-37.73 607.00 -21.84
-36.07 607.00 -21.84
-34.46 608.00 -21.88
-32.90 610.00 -21.95
-31.28 611.00 -21.99
-29.71 613.00 -22.06
-28.16 616.00 -22.17
-26.65 620.00 -22.32
-25.23 627.00 -22.57
-23.93 638.00 -22.97
-22.49 647.00 -23.29
-21.00 656.00 -23.61
-19.38 662.00 -23.83
-17.73 668.00 -24.05
-15.92 669.00 -24.08
-14.11 670.00 -24.12
-12.27 670.00 -24.12
-10.48 673.00 -24.23
-8.65 674.00 -24.26
-6.81 675.00 -24.30
-4.97 676.00 -24.34
-3.12 678.00 -24.41
-1.27 680.00 -24.48
0.60 683.00 -24.59
2.49 687.00 -24.73
4.41 693.00 -24.95
6.39 702.00 -25.27
8.46 714.00 -25.70
10.66 731.00 -26.32
13.29 767.00 -27.61
-104.22 723.00 -27.96
-100.41 710.00 -27.45
-97.50 703.00 -27.19
-94.90 698.00 -26.99
-92.46 694.00 -26.84
-90.18 691.00 -26.73
-87.91 688.00 -26.61
-85.53 684.00 -26.46
-82.69 676.00 -26.15
-80.00 669.00 -25.88
-77.24 661.00 -25.57
-74.64 654.00 -25.31
-71.96 646.00 -25.00
-69.22 637.00 -24.65
-66.74 630.00 -24.38
-64.50 625.00 -24.19
-62.39 621.00 -24.04
-60.30 617.00 -23.88
-58.52 616.00 -23.84
-56.83 616.00 -23.85
-55.15 616.00 -23.85
-53.29 614.00 -23.77
-51.61 614.00 -23.77
-50.01 615.00 -23.81
-48.48 617.00 -23.89
-46.72 616.00 -23.85
-44.96 615.00 -23.81
-43.42 617.00 -23.89
-41.80 618.00 -23.93
-40.30 621.00 -24.05
-38.54 620.00 -24.01
-36.78 619.00 -23.97
-35.08 619.00 -23.97
-33.44 620.00 -24.01
-31.85 622.00 -24.09
-30.34 626.00 -24.25
-28.80 630.00 -24.40
-27.42 638.00 -24.71
-25.91 644.00 -24.95
-24.49 653.00 -25.29
-22.87 658.00 -25.49
-21.20 662.00 -25.64
-19.41 663.00 -25.68
-17.70 667.00 -25.84
-15.87 667.00 -25.84
-14.04 667.00 -25.84
-12.21 667.00 -25.84
-10.42 669.00 -25.92
-8.62 672.00 -26.03
-6.80 674.00 -26.11
-4.96 675.00 -26.15
-3.12 677.00 -26.23
-1.26 678.00 -26.27
0.60 681.00 -26.38
2.48 684.00 -26.50
4.39 690.00 -26.73
6.35 698.00 -27.04
8.42 711.00 -27.54
10.60 727.00 -28.16
13.24 764.00 -29.60
-103.20 716.00 -29.64
-99.13 701.00 -29.02
-96.25 694.00 -28.74
-93.68 689.00 -28.53
-91.40 686.00 -28.41
-88.87 681.00 -28.20
-86.76 679.00 -28.12
-84.66 677.00 -28.04
-82.56 675.00 -27.96
-80.24 671.00 -27.80
-77.94 667.00 -27.63
-75.66 663.00 -27.47
-73.41 659.00 -27.30
-70.95 653.00 -27.06
-68.43 646.00 -26.77
-66.04 640.00 -26.52
-63.89 636.00 -26.36
-61.76 632.00 -26.19
-59.85 630.00 -26.11
-57.94 628.00 -26.03
-56.22 628.00 -26.03
-54.33 626.00 -25.95
-52.70 627.00 -25.99
-51.07 628.00 -26.03
-49.35 628.00 -26.04
-47.48 626.00 -25.95
-45.84 627.00 -26.00
-44.19 628.00 -26.04
-42.61 630.00 -26.12
-40.95 631.00 -26.16
-39.16 630.00 -26.12
-37.31 628.00 -26.04
-35.59 628.00 -26.04
-33.98 630.00 -26.13
-32.51 635.00 -26.33
-30.97 639.00 -26.50
-29.44 644.00 -26.71
-27.94 650.00 -26.96
-26.28 653.00 -27.08
-24.60 656.00 -27.21
-22.80 656.00 -27.21
-21.00 656.00 -27.21
-19.18 655.00 -27.17
-17.46 658.00 -27.29
-15.70 660.00 -27.38
-13.90 660.00 -27.38
-12.12 662.00 -27.46
-10.35 665.00 -27.59
-8.57 668.00 -27.71
-6.75 669.00 -27.75
-4.93 671.00 -27.83
-3.10 672.00 -27.88
-1.26 675.00 -28.00
0.59 677.00 -28.08
2.46 681.00 -28.25
4.38 688.00 -28.54
6.33 695.00 -28.83
8.37 707.00 -29.33
10.52 721.00 -29.91
13.13 758.00 -31.44
-102.48 711.00 -31.38
-98.56 697.00 -30.77
-95.42 688.00 -30.37
-92.99 684.00 -30.20
-90.60 680.00 -30.02
-88.22 676.00 -29.85
-85.99 673.00 -29.72
-83.78 670.00 -29.59
-81.83 669.00 -29.54
-79.88 668.00 -29.50
-77.94 667.00 -29.46
-75.89 665.00 -29.37
-73.85 663.00 -29.28
-71.60 659.00 -29.11
-69.49 656.00 -28.98
-67.28 652.00 -28.80
-65.30 650.00 -28.72
-63.33 648.00 -28.63
-61.36 646.00 -28.54
-59.32 643.00 -28.41
-57.38 641.00 -28.32
-55.28 637.00 -28.15
-53.62 638.00 -28.19
-52.04 640.00 -28.28
-50.29 640.00 -28.29
-48.46 639.00 -28.24
-46.64 638.00 -28.20
-45.03 640.00 -28.29
-43.21 639.00 -28.25
-41.53 640.00 -28.29
-39.84 641.00 -28.34
-38.14 642.00 -28.38
-36.39 642.00 -28.38
-34.79 645.00 -28.52
-33.12 647.00 -28.60
-31.55 651.00 -28.78
-29.81 652.00 -28.83
-28.06 653.00 -28.87
-26.24 652.00 -28.83
-24.45 652.00 -28.83
-22.63 651.00 -28.79
-20.84 651.00 -28.79
-19.06 651.00 -28.79
-17.35 654.00 -28.92
-15.63 657.00 -29.05
-13.85 658.00 -29.10
-12.09 660.00 -29.19
-10.29 661.00 -29.23
-8.53 665.00 -29.41
-6.73 667.00 -29.50
-4.92 669.00 -29.58
-3.09 671.00 -29.67
-1.25 673.00 -29.76
0.59 675.00 -29.85
2.46 681.00 -30.12
4.38 689.00 -30.47
6.34 697.00 -30.82
8.37 707.00 -31.27
10.49 719.00 -31.80
13.05 753.00 -33.30
16.05 800.00 -35.38
-102.19 709.00 -33.23
-98.00 693.00 -32.48
-95.00 685.00 -32.11
-92.31 679.00 -31.83
-90.06 676.00 -31.69
-87.69 672.00 -31.51
-85.48 669.00 -31.37
-83.40 667.00 -31.28
-81.34 665.00 -31.19
-79.40 664.00 -31.14
-77.24 661.00 -31.00
-75.20 659.00 -30.91
-73.29 658.00 -30.86
-71.39 657.00 -30.82
-69.38 655.00 -30.73
-67.28 652.00 -30.59
-65.40 651.00 -30.54
-63.71 652.00 -30.59
-62.03 653.00 -30.64
-59.96 650.00 -30.50
-57.92 647.00 -30.36
-55.80 643.00 -30.18
-54.04 643.00 -30.18
-52.45 645.00 -30.27
-50.68 645.00 -30.27
-48.92 645.00 -30.27
-47.08 644.00 -30.23
-45.31 644.00 -30.23
-43.55 644.00 -30.23
-41.85 645.00 -30.28
-40.21 647.00 -30.37
-38.44 647.00 -30.37
-36.67 647.00 -30.38
-34.90 647.00 -30.38
-33.07 646.00 -30.33
-31.35 647.00 -30.38
-29.62 648.00 -30.43
-27.81 647.00 -30.38
-26.03 647.00 -30.38
-24.22 646.00 -30.33
-22.49 647.00 -30.38
-20.71 647.00 -30.38
-18.97 648.00 -30.43
-17.27 651.00 -30.57
-15.54 653.00 -30.67
-13.77 654.00 -30.71
-12.03 657.00 -30.85
-10.25 658.00 -30.90
-8.48 661.00 -31.04
-6.69 663.00 -31.14
-4.89 666.00 -31.28
-3.07 667.00 -31.32
-1.25 670.00 -31.47
0.59 672.00 -31.56
2.46 679.00 -31.89
4.36 685.00 -32.17
6.31 693.00 -32.55
8.31 702.00 -32.97
10.41 714.00 -33.53
12.94 747.00 -35.08
15.97 796.00 -37.38
-102.05 708.00 -35.12
-97.99 693.00 -34.38
-94.99 685.00 -33.99
-92.31 679.00 -33.69
-89.79 674.00 -33.44
-87.43 670.00 -33.25
-85.22 667.00 -33.10
-83.27 666.00 -33.05
-81.09 663.00 -32.91
-79.04 661.00 -32.81
-76.88 658.00 -32.66
-74.86 656.00 -32.56
-72.96 655.00 -32.52
-70.95 653.00 -32.42
-69.06 652.00 -32.37
-66.97 649.00 -32.22
-65.19 649.00 -32.23
-63.42 649.00 -32.23
-61.74 650.00 -32.28
-59.78 648.00 -32.18
-57.92 647.00 -32.13
-56.06 646.00 -32.08
-54.29 646.00 -32.09
-52.44 645.00 -32.04
-50.52 643.00 -31.94
-48.84 644.00 -31.99
-47.00 643.00 -31.94
-45.38 645.00 -32.04
-43.62 645.00 -32.04
-42.05 648.00 -32.19
-40.27 648.00 -32.20
-38.44 647.00 -32.15
-36.55 645.00 -32.05
-34.73 644.00 -32.00
-32.82 641.00 -31.85
-31.06 641.00 -31.85
-29.40 643.00 -31.95
-27.68 644.00 -32.00
-25.95 645.00 -32.05
-24.18 645.00 -32.05
-22.45 646.00 -32.10
-20.71 647.00 -32.15
-18.97 648.00 -32.20
-17.27 651.00 -32.35
-15.56 654.00 -32.50
-13.81 656.00 -32.60
-12.05 658.00 -32.70
-10.25 658.00 -32.70
-8.47 660.00 -32.80
-6.69 663.00 -32.95
-4.89 666.00 -33.10
-3.07 666.00 -33.10
-1.25 668.00 -33.20
0.59 669.00 -33.25
2.44 675.00 -33.55
4.33 681.00 -33.85
6.28 690.00 -34.29
8.28 699.00 -34.74
10.40 713.00 -35.44
12.87 743.00 -36.93
15.89 792.00 -39.36
-101.75 706.00 -36.95
-97.71 691.00 -36.17
-94.58 682.00 -35.70
-92.04 677.00 -35.44
-89.66 673.00 -35.24
-87.17 668.00 -34.98
-84.96 665.00 -34.82
-82.77 662.00 -34.67
-80.60 659.00 -34.51
-78.68 658.00 -34.46
-76.53 655.00 -34.31
-74.63 654.00 -34.26
-72.51 651.00 -34.10
-70.51 649.00 -34.00
-68.53 647.00 -33.89
-66.35 643.00 -33.69
-64.49 642.00 -33.64
-62.64 641.00 -33.59
-61.07 643.00 -33.69
-59.22 642.00 -33.64
-57.56 643.00 -33.69
-55.80 643.00 -33.70
-53.87 641.00 -33.59
-52.04 640.00 -33.54
-50.21 639.00 -33.49
-48.46 639.00 -33.49
-46.56 637.00 -33.39
-44.89 638.00 -33.44
-43.28 640.00 -33.55
-41.59 641.00 -33.60
-39.77 640.00 -33.55
-37.90 638.00 -33.45
-36.10 637.00 -33.40
-34.41 638.00 -33.45
-32.61 637.00 -33.40
-30.87 637.00 -33.40
-29.17 638.00 -33.45
-27.55 641.00 -33.61
-25.83 642.00 -33.66
-24.11 643.00 -33.72
-22.38 644.00 -33.77
-20.68 646.00 -33.87
-18.94 647.00 -33.93
-17.22 649.00 -34.03
-15.51 652.00 -34.19
-13.79 655.00 -34.35
-12.03 657.00 -34.45
-10.23 657.00 -34.45
-8.44 658.00 -34.51
-6.67 661.00 -34.66
-4.87 663.00 -34.77
-3.06 664.00 -34.82
-1.24 666.00 -34.93
0.59 668.00 -35.03
2.43 672.00 -35.24
4.31 677.00 -35.50
6.23 685.00 -35.92
8.23 695.00 -36.45
10.34 709.00 -37.18
12.79 738.00 -38.70
15.79 787.00 -41.27
